# .PCD v0.7 - Point Cloud Data file format
VERSION 0.7
FIELDS x y z
SIZE 4 4 4
TYPE F F F
COUNT 1 1 1
WIDTH 1542
HEIGHT 1
VIEWPOINT 0 0 0 1 0 0 0
POINTS 1542
DATA ascii
23.751991 1.1633224 -7.0052838
24.064075 -2.3722916 -7.7746205
23.720921 -1.1698682 -8.287529
23.591988 -0.015443437 -8.9087124
23.692776 1.1645712 -9.6411514
24.438517 -2.5601823 9.983449
24.032576 -1.3327078 9.0787439
23.865858 -0.15275888 8.3328991
23.949356 1.0260979 7.7064042
24.420341 -2.558423 7.2279563
23.973026 -1.3279837 6.4142261
23.815483 -0.14743839 5.7397504
23.923222 1.0287825 5.1407795
24.336628 -2.5482767 4.6183372
23.923412 -1.3228326 3.9081078
23.778353 -0.14400415 3.2763855
23.873119 1.0290484 2.6824579
24.308151 -2.5498631 2.1328168
23.916059 -1.3266424 1.4916577
23.743515 -0.14399551 0.88201028
23.81913 1.0155617 0.29430559
24.288429 -2.5476508 -0.30596685
23.825737 -1.3129001 -0.89655167
23.729111 -0.14861 -1.4747458
23.796556 1.0225102 -2.0807176
24.254667 -2.5556293 -2.7482989
23.841837 -1.3292512 -3.2832267
23.700073 -0.14144713 -3.8674278
23.748293 1.0249224 -4.4954653
24.161203 -2.5342276 -5.2122698
23.796741 -1.3258977 -5.7439861
23.609173 -0.14453894 -6.3146839
23.711561 1.0155429 -6.9913893
24.089539 -2.5241423 -7.7877049
23.730982 -1.3163761 -8.2937098
23.594799 -0.1602236 -8.909977
23.671656 1.0179769 -9.6298342
24.562777 -2.7256694 10.040854
24.071987 -1.4831036 9.0968981
23.877192 -0.29935363 8.3373404
23.928183 0.87813663 7.6977124
24.481144 -2.7167556 7.2507496
24.00815 -1.4777457 6.4259286
23.85202 -0.29403177 5.7488823
23.895861 0.88074845 5.1336417
24.438171 -2.7106035 4.6406755
23.988417 -1.47412 3.9201305
23.774256 -0.28986895 3.2760046
23.869127 0.882182 2.6813505
24.392305 -2.7101064 2.1416192
23.923443 -1.4743482 1.4926544
23.763803 -0.28994405 0.88281339
23.817858 0.86913359 0.29421845
24.350786 -2.705349 -0.3069557
23.917128 -1.4651871 -0.90031195
23.726686 -0.29419309 -1.4746796
23.770092 0.87528872 -2.0778947
24.318626 -2.7133417 -2.7573807
23.887156 -1.4788553 -3.2906551
23.697166 -0.28684613 -3.8671679
23.733744 0.87843156 -4.4916067
24.284048 -2.6978557 -5.2422433
23.838266 -1.4749873 -5.7560859
23.648144 -0.28989339 -6.3254633
23.674486 0.86846018 -6.978756
24.208702 -2.6869006 -7.8314109
23.76325 -1.4644759 -8.307971
23.593765 -0.30500063 -8.9101267
23.664387 0.87222946 -9.6245193
24.63158 -2.8864088 10.076031
24.11503 -1.6343433 9.1167822
23.905605 -0.44642904 8.3480616
23.929983 0.73120373 7.6967039
24.568363 -2.8791471 7.2816777
24.080486 -1.630572 6.4478469
23.841105 -0.44021949 5.7467942
23.867617 0.73308992 5.1265111
24.532507 -2.873554 4.6618505
24.017603 -1.6263781 3.9293168
23.820068 -0.43662012 3.2826245
23.807766 0.73217815 2.6739047
24.506489 -2.8751242 2.1531529
24.00127 -1.630024 1.5020365
23.762339 -0.43576446 0.88284165
23.802473 0.72235852 0.29396814
24.434576 -2.8665426 -0.30822784
23.960909 -1.6155005 -0.90231609
23.721333 -0.43971425 -1.4744867
23.731764 0.72809482 -2.0741146
24.408903 -2.8751559 -2.7695651
23.911489 -1.6334078 -3.3046403
23.72036 -0.43907699 -3.8727388
23.746002 0.7297343 -4.4778852
24.356468 -2.8573003 -5.2596321
23.860149 -1.6233635 -5.7562122
23.657106 -0.43519604 -6.3213744
23.686125 0.72338617 -6.9786134
24.299288 -2.8479946 -7.8595467
23.849083 -1.616715 -8.349884
23.648766 -0.45085621 -8.9307079
23.651909 0.72647709 -9.610323
24.692419 -3.0472419 10.108376
24.159914 -1.7863733 9.137723
23.892149 -0.59284788 8.3444748
23.897196 0.58345926 7.6848621
24.691021 -3.0472164 7.3234353
24.078993 -1.7789588 6.4502482
23.853622 -0.58688307 5.7505722
23.894247 0.5871821 5.1313605
24.626841 -3.0378973 4.6832299
24.083916 -1.7793868 3.9418778
23.8193 -0.58282685 3.2829497
23.823473 0.58636975 2.6752143
24.577129 -3.0364032 2.1609557
24.023371 -1.7796739 1.5040745
23.776804 -0.58198977 0.88349515
23.781502 0.57569152 0.29365996
24.508657 -3.0277984 -0.30939087
24.002657 -1.7663263 -0.90427947
23.75559 -0.58618033 -1.4768118
23.747427 0.58275145 -2.0751319
24.501003 -3.0385387 -2.7820783
23.963079 -1.7847172 -3.313221
23.719198 -0.58466285 -3.8730619
23.69585 0.58268547 -4.4676695
24.437754 -3.0189595 -5.281086
23.919374 -1.7749033 -5.7730188
23.687843 -0.58117563 -6.3304219
23.655735 0.57719821 -6.9684844
24.39983 -3.0116618 -7.8978949
23.873924 -1.7656237 -8.3622169
23.636259 -0.59571958 -8.9271975
23.609072 0.58018672 -9.5912895
24.830353 -3.2190609 10.172736
24.20093 -1.9387826 9.1575623
23.919277 -0.74040246 8.3553791
23.876333 0.43637931 7.6771469
24.752644 -3.2091339 7.347415
24.17746 -1.9354637 6.4796844
23.872065 -0.73392653 5.7559948
23.844643 0.4395861 5.1200323
24.711298 -3.202368 4.702939
24.115894 -1.9305999 3.9489768
23.846643 -0.72992849 3.2872739
23.821014 0.44007704 2.6745846
24.663723 -3.2008648 2.1702557
24.044939 -1.9296885 1.5061377
23.83959 -0.72991592 0.88597786
23.755646 0.42923722 0.29330263
24.61779 -3.1947572 -0.31101015
24.022509 -1.9160546 -0.90545321
23.789841 -0.7331109 -1.4791929
23.726704 0.43659014 -2.0730479
24.557808 -3.1987047 -2.7907045
24.0023 -1.9358013 -3.3202236
23.718546 -0.73029423 -3.8736143
23.688698 0.43708986 -4.4657311
24.514353 -3.1812537 -5.3017578
23.968575 -1.9265023 -5.7876377
23.698545 -0.72696197 -6.3343544
23.688761 0.43258509 -6.9773006
24.505447 -3.17747 -7.9382434
23.919825 -1.9166603 -8.3822565
23.646444 -0.74118555 -8.9325943
23.601952 0.43512458 -9.5871315
24.912201 -3.3852258 10.214587
24.256001 -2.0930579 9.1830883
23.950754 -0.88850743 8.3681211
23.833681 0.28932387 7.6627183
24.863724 -3.378787 7.3864021
24.203136 -2.0870547 6.4898758
23.86384 -0.88026834 5.7552056
23.817562 0.29290918 5.1137357
24.795469 -3.3680997 4.7228026
24.160681 -2.0834589 3.9583292
23.862129 -0.87698513 3.2900882
23.817661 0.29383662 2.6739554
24.777235 -3.3703132 2.1820226
24.113132 -2.0841458 1.511182
23.808657 -0.87522316 0.8850112
23.771215 0.28362691 0.29346788
24.726763 -3.3633003 -0.31264168
24.097452 -2.0709076 -0.90873981
23.78257 -0.8789829 -1.4790484
23.767729 0.29147333 -2.0764372
24.665373 -3.3667521 -2.8052227
24.074152 -2.0903497 -3.3318746
23.770323 -0.877909 -3.8828766
23.70384 0.29188943 -4.4681644
24.620804 -3.3488078 -5.3291235
24.024033 -2.079397 -5.8040004
23.719954 -0.87332869 -6.3413897
23.650015 0.28672889 -6.9652386
24.542856 -3.3355694 -7.9568415
23.943632 -2.0665021 -8.3948851
23.706333 -0.88869566 -8.9571085
23.585989 0.29007381 -9.5797443
25.039213 -3.5590932 10.275426
24.309378 -2.2480166 9.2083454
23.955761 -1.0359213 8.371933
23.839643 0.14310551 7.6642084
24.979809 -3.5507991 7.4272213
24.263544 -2.2423315 6.5096412
23.90036 -1.0285009 5.7654271
23.796841 0.14662583 5.1089964
24.916775 -3.5404174 4.7499566
24.221508 -2.2385116 3.9704702
23.877964 -1.0243134 3.2930765
23.785013 0.14747782 2.6701379
24.848879 -3.5354824 2.190201
24.177677 -2.2392664 1.5160595
23.834146 -1.0226372 0.88617527
23.743124 0.13759385 0.2931051
24.814377 -3.5304251 -0.31401747
24.143688 -2.2241995 -0.910981
23.813974 -1.026499 -1.4813652
23.701925 0.1452204 -2.0705714
24.796293 -3.5397372 -2.8225296
24.100292 -2.241693 -3.337333
23.750452 -1.0231397 -3.8805835
23.646469 0.14607717 -4.4570971
24.708733 -3.5153143 -5.3527241
24.043085 -2.2297585 -5.8117995
23.725048 -1.0193235 -6.3443041
23.622305 0.14143597 -6.9566913
24.660267 -3.5057652 -8.00173
23.993956 -2.2192473 -8.4171438
23.688364 -1.0336117 -8.9525471
23.578491 0.14529304 -9.5761576
25.188038 -3.7380614 10.345717
24.358234 -2.4033606 9.2322645
23.96534 -1.1837012 8.3776617
23.814211 -0.0031710539 7.6558938
25.129824 -3.7295725 7.4784884
24.31802 -2.3979409 6.5280805
23.915028 -1.1761851 5.7705975
23.798075 0.00060842989 5.1091647
25.085371 -3.7215414 4.7863593
24.237551 -2.3900712 3.9754291
23.88467 -1.1714658 3.2949305
23.776569 0.0015323642 2.6691389
25.008572 -3.7148993 2.2062442
24.208466 -2.3920205 1.5188818
23.863588 -1.1706357 0.88752031
23.747755 -0.0080952458 0.29315737
24.938896 -3.7043998 -0.3158749
24.159142 -2.3752062 -0.9120968
23.816267 -1.1730446 -1.4819276
23.700136 -0.00021459877 -2.0703762
24.920446 -3.7136254 -2.8392022
24.1472 -2.3955905 -3.3458014
23.788332 -1.1710463 -3.8878734
23.62854 0.00098165509 -4.4536324
24.82963 -3.6880887 -5.3837156
24.07407 -2.381706 -5.8227119
23.70771 -1.164356 -6.3414588
23.626383 -0.0035109841 -6.9577675
24.772959 -3.6770005 -8.0454655
24.073803 -2.3756979 -8.4501095
23.723661 -1.1810364 -8.9684572
23.596048 0.0006158328 -9.583106
25.333134 -3.9186072 10.414994
24.447083 -2.5636864 9.2717276
24.007004 -1.3334701 8.3949289
23.857416 -0.14956604 7.6699352
25.219231 -3.90114 7.5120778
24.371286 -2.554281 6.546464
23.98645 -1.3272792 5.7896876
23.817415 -0.14553472 5.1134124
25.233524 -3.9019053 4.8191047
24.358303 -2.5529859 3.9977291
23.899134 -1.3192173 3.2979803
23.779436 -0.14437802 2.6695101
25.160702 -3.8954339 2.2217319
24.308336 -2.5525923 1.5261019
23.877878 -1.318248 0.88833582
23.746342 -0.15380265 0.29314604
25.101358 -3.8860958 -0.31822866
24.251596 -2.5346327 -0.91615719
23.855436 -1.3217503 -1.4848416
23.69278 -0.14559345 -2.0697727
25.039968 -3.8886375 -2.8554842
24.183277 -2.5491104 -3.3529043
23.785769 -1.3172675 -3.8887022
23.651415 -0.14414245 -4.4580269
24.993038 -3.8692443 -5.4241924
24.162907 -2.5403006 -5.8478589
23.773232 -1.3138424 -6.361022
23.630939 -0.14851125 -6.9592466
24.944431 -3.8590255 -8.1086912
24.13039 -2.5308785 -8.4752636
23.733509 -1.3275609 -8.97509
23.600794 -0.14419849 -9.5852127
25.482857 -4.1020226 10.486698
24.550888 -2.7269711 9.3172665
24.045433 -1.4836531 8.4113922
23.862556 -0.29603031 7.6720266
25.401756 -4.0891204 7.5737777
24.500736 -2.7199337 6.5855947
24.007244 -1.4762396 5.7967839
23.874155 -0.29238421 5.1258831
25.361597 -4.0812011 4.8482556
24.44944 -2.7143052 4.0153446
23.981461 -1.4714104 3.3105245
23.780771 -0.29031575 2.6698096
25.320307 -4.0793848 2.2379935
24.371523 -2.7105174 1.5310843
23.914503 -1.4675065 0.89001667
23.751431 -0.2995863 0.29322606
25.253153 -4.0684142 -0.32046354
24.316496 -2.6923482 -0.91921574
23.884186 -1.4703963 -1.4871646
23.712074 -0.29122031 -2.0715752
25.171406 -4.0673771 -2.8732648
24.309618 -2.7133462 -3.3726656
23.84024 -1.4670664 -3.8990059
23.679045 -0.28961632 -4.4634857
25.107742 -4.0449052 -5.4543705
24.22987 -2.6977553 -5.8679605
23.847988 -1.464802 -6.3833098
23.614414 -0.29331675 -6.9547791
25.061049 -4.0346708 -8.1544943
24.222061 -2.6908517 -8.5130997
23.774477 -1.4762393 -8.9938383
23.621737 -0.28928027 -9.5942583
25.608122 -4.2835493 10.548865
24.623459 -2.8880899 9.3513575
24.108915 -1.6361219 8.4369526
23.864033 -0.44251204 7.6732297
25.560005 -4.2756548 7.6286402
24.546513 -2.8775933 6.6025209
24.045506 -1.6267494 5.8083234
23.824898 -0.43800345 5.1157875
25.529045 -4.2690082 4.8851814
24.517164 -2.8742189 4.0292873
23.986937 -1.61954 3.3125899
23.781855 -0.43628716 2.6701815
25.444872 -4.2597947 2.2512712
24.466438 -2.8731606 1.5381258
23.978987 -1.6192083 0.89276952
23.757351 -0.44547054 0.29332739
25.40851 -4.2535543 -0.32276013
24.440092 -2.857939 -0.92453337
23.95396 -1.6222866 -1.492101
23.774443 -0.43789926 -2.0772197
25.372421 -4.2597671 -2.8991394
24.409416 -2.8762312 -3.3888962
23.913921 -1.6189479 -3.9126074
23.685232 -0.43505725 -4.4650712
25.288288 -4.2333455 -5.4991312
24.341831 -2.8615377 -5.8992171
23.88345 -1.6141374 -6.3953319
23.666185 -0.43920898 -6.9706888
25.246313 -4.2235808 -8.2230539
24.266291 -2.8466036 -8.5346231
23.824137 -1.6261274 -9.0162296
23.604258 -0.43393457 -9.5880594
25.883633 -4.4930687 10.673513
24.674671 -3.0476935 9.3777323
24.149168 -1.7877773 8.4547176
23.898338 -0.58985549 7.6852798
25.796841 -4.478158 7.7073817
24.680729 -3.0469604 6.6435266
24.1031 -1.7792809 5.8247628
23.867489 -0.58530337 5.1256075
25.725965 -4.4643726 4.9280124
24.625053 -3.0401533 4.0500078
24.084995 -1.7746813 3.3275731
23.79442 -0.58258575 2.6719432
24.541471 -3.034745 1.5439844
24.009104 -1.7692951 0.89427817
23.758446 -0.5913409 0.29338014
25.57188 -4.4423761 -0.32517555
24.507383 -3.0183508 -0.92776209
24.000999 -1.7734791 -1.4956807
23.738789 -0.58296973 -2.0743783
25.482912 -4.4392533 -2.9148219
24.471497 -3.0358987 -3.4000375
23.940866 -1.7684076 -3.9187176
23.703588 -0.58090508 -4.4691191
25.41803 -4.415565 -5.5331316
24.441614 -3.0254238 -5.9277868
23.885923 -1.7615989 -6.3987679
23.675152 -0.58471274 -6.974256
24.404001 -3.0146711 -8.5894012
23.867508 -1.7762827 -9.0365982
23.677139 -0.58062279 -9.6189308
26.136816 -4.7024021 10.789613
24.794983 -3.2171342 9.4307823
24.203753 -1.9412143 8.4778385
23.927608 -0.73750943 7.696003
26.01351 -4.6803746 7.78055
24.723089 -3.2063196 6.660099
24.162169 -1.9327761 5.841794
23.879538 -0.73223394 5.1290641
25.938179 -4.6653237 4.9740534
24.68795 -3.2018292 4.0635071
24.124693 -1.9265065 3.3346279
23.831585 -0.72983611 2.6765692
25.887817 -4.6612334 2.2953498
24.634354 -3.199815 1.5510339
24.078688 -1.9230392 0.89729261
23.782505 -0.73798186 0.29372764
25.809813 -4.6470323 -0.32855752
24.585073 -3.1811774 -0.93142462
24.0336 -1.9242307 -1.4984199
23.733778 -0.72858685 -2.0742919
25.769825 -4.6523318 -2.9508498
24.558914 -3.199873 -3.4148469
23.984682 -1.9196841 -3.9277434
23.725882 -0.72714287 -4.4740796
25.668459 -4.6214976 -5.5937147
24.506868 -3.186295 -5.9482417
23.966259 -1.9154475 -6.423317
23.704945 -0.73101282 -6.9842219
25.552074 -4.5977607 -8.3403959
24.489256 -3.1778774 -8.6261091
23.908167 -1.9268888 -9.0562973
23.691412 -0.72645265 -9.626358
26.377724 -4.913022 10.901302
24.893366 -3.3853402 9.4759245
24.237806 -2.0936992 8.4941072
23.943495 -0.88508379 7.7027144
26.264252 -4.8920465 7.8643765
24.840883 -3.3767068 6.6972866
24.226133 -2.087569 5.8602457
23.898149 -0.87960911 5.1341238
26.191753 -4.8770275 5.0283246
24.779488 -3.3684285 4.0818987
24.135595 -2.0764909 3.3378334
23.82338 -0.87592959 2.6762009
24.720306 -3.3653455 1.5577164
24.107399 -2.0742717 0.89881986
23.792303 -0.88444394 0.29391018
26.050068 -4.8554974 -0.33198899
24.703058 -3.3506823 -0.93665582
24.048037 -2.0739641 -1.5000851
23.781328 -0.87613386 -2.0788784
25.974205 -4.8539844 -2.9776075
24.675407 -3.3691533 -3.4338551
24.020266 -2.0709376 -3.9355776
23.7607 -0.87416995 -4.4815726
25.870939 -4.8220243 -5.6441808
24.606867 -3.3529594 -5.9773946
24.0023 -2.0666196 -6.436254
23.665329 -0.87516731 -6.9740005
25.816839 -4.809123 -8.4362898
24.555044 -3.3397434 -8.6563368
23.971373 -2.0801003 -9.0849037
23.656143 -0.87068903 -9.6140184
25.062469 -3.5650954 9.5484428
24.303673 -2.2497087 8.5218678
23.945759 -1.0323328 7.7053351
24.933138 -3.5451941 6.7278976
24.220373 -2.2368715 5.862062
23.90616 -1.0268242 5.1371021
26.480726 -5.0991473 5.0897131
24.871 -3.5364265 4.1004705
24.203192 -2.2319956 3.3490129
23.855385 -1.0237139 2.6804514
26.395187 -5.0877647 2.3456957
24.800499 -3.5313883 1.5641056
24.152727 -2.2275491 0.90100259
23.835117 -1.0325233 0.29451177
26.353571 -5.0795832 -0.33624783
24.772972 -3.5150979 -0.94010687
24.116989 -2.2290721 -1.5052112
23.782976 -1.0223581 -2.0795317
26.241266 -5.0707231 -3.0117326
24.721457 -3.5300891 -3.4432125
24.075586 -2.224612 -3.9468038
23.766329 -1.0204377 -4.4837308
26.195036 -5.0489392 -5.7215395
24.694641 -3.5193884 -6.0038495
24.042524 -2.21878 -6.4505692
23.728041 -1.0233138 -6.9941998
26.094372 -5.0266824 -8.5368996
24.657124 -3.5078511 -8.699748
24.025387 -2.2333963 -9.1103973
23.666187 -1.0165042 -9.6204538
25.168198 -3.7378299 9.5972815
24.346251 -2.4044042 8.5418091
23.944496 -1.1795139 7.7071128
27.02783 -5.3782654 8.1121712
25.084629 -3.7239027 6.7748137
24.283958 -2.3931067 5.8808947
23.932426 -1.1751114 5.1441989
26.923595 -5.3559575 5.1810532
25.053333 -3.7193253 4.1342173
24.219244 -2.3834338 3.3531942
23.860537 -1.1706516 2.6817868
26.832235 -5.3429685 2.3874037
24.994337 -3.715601 1.5777386
24.188866 -2.3806522 0.90287864
23.856255 -1.1801345 0.29485685
26.645548 -5.3056326 -0.34038213
24.914753 -3.6913061 -0.946329
24.158974 -2.3825436 -1.5087155
23.84655 -1.1717223 -2.0856798
26.583941 -5.3063498 -3.0547409
24.883389 -3.7091467 -3.4688711
24.135353 -2.3795781 -3.9589207
23.751955 -1.1658696 -4.4822845
26.416729 -5.2599826 -5.7769022
24.857342 -3.6983349 -6.0488091
24.09285 -2.3726015 -6.4678555
23.718906 -1.1687684 -6.9934902
26.343977 -5.2426081 -8.6289206
24.73781 -3.6743288 -8.7360058
24.032196 -2.3828499 -9.1183519
23.695318 -1.1634564 -9.6350155
28.079304 -5.7666616 11.646427
25.293352 -3.9151843 9.653985
24.415653 -2.5626254 8.5715141
23.992846 -1.3295175 7.7251558
27.618124 -5.6721182 8.2996321
25.236443 -3.9048479 6.8221579
24.375517 -2.5532415 5.9067502
23.983824 -1.3251991 5.1568966
27.452585 -5.6365199 5.2894053
25.220697 -3.9024804 4.1657076
24.333611 -2.5455365 3.3711276
23.916931 -1.3205702 2.6889856
25.138548 -3.8948419 1.5883205
24.267929 -2.5388751 0.90639424
23.88744 -1.3286539 0.29533753
27.189974 -5.5877028 -0.34776834
25.108185 -3.8775535 -0.95456183
24.248692 -2.5417197 -1.5152639
23.797434 -1.3157266 -2.0820508
25.065372 -3.8936355 -3.4975052
24.214264 -2.537472 -3.9743435
23.805771 -1.3149794 -4.4938784
26.904213 -5.5288873 -5.8908148
24.938395 -3.8669465 -6.074192
24.175417 -2.5306022 -6.4940672
23.739277 -1.3158343 -7.0017452
26.716568 -5.4873896 -8.7618256
24.9051 -3.8555076 -8.8032713
24.126944 -2.5418336 -9.1600466
23.713779 -1.3102654 -9.6456108
25.441841 -4.0981727 9.7200747
24.519579 -2.7257409 8.6137085
24.055246 -1.481082 7.7480273
25.408352 -4.0912371 6.8752871
24.446035 -2.7123718 5.9277601
24.024591 -1.4753668 5.1675119
25.350147 -4.0819349 4.1911473
24.408922 -2.7049243 3.3837967
23.938059 -1.4691185 2.6923237
25.276857 -4.0752439 1.5986091
24.395809 -2.7036819 0.91177285
23.937416 -1.4788183 0.29606202
28.025469 -5.9388556 -0.3589139
25.203728 -4.0507975 -0.95912099
24.336607 -2.702002 -1.521765
23.874767 -1.4669956 -2.089565
27.69805 -5.883069 -3.1908185
25.200264 -4.073101 -3.5197487
24.294802 -2.6967185 -3.9902029
23.848 -1.4641396 -4.5034609
27.388939 -5.8038769 -6.0046329
25.101112 -4.0500507 -6.1197619
24.222342 -2.6858678 -6.5109773
23.79014 -1.4651281 -7.0192661
27.252644 -5.7719922 -8.9490814
25.056244 -4.0364852 -8.8652849
24.212681 -2.7011819 -9.1987171
23.733698 -1.4574901 -9.6571674
24.613993 -2.8892388 8.6529408
24.047094 -1.6287484 7.7484751
25.564367 -4.2774477 6.9244747
24.553202 -2.8768797 5.9579144
24.028286 -1.623643 5.170352
25.499081 -4.2665939 4.2117658
24.521111 -2.8697696 3.4017267
23.994619 -1.6204308 2.6997526
25.427298 -4.2597351 1.6097463
24.481148 -2.8653045 0.91560227
23.952362 -1.6273303 0.29636478
25.382219 -4.2394109 -0.96206272
24.397104 -2.860368 -1.5246962
23.963772 -1.6201172 -2.0945458
25.326967 -4.2409434 -3.5408792
24.362875 -2.8490806 -4.0026064
23.858667 -1.6084923 -4.5224013
25.289724 -4.2398586 -6.179966
24.331104 -2.8491619 -6.5521207
23.858753 -1.616362 -7.044457
28.430878 -6.2040524 -9.356246
25.202015 -4.2187786 -8.9224939
24.287882 -2.8605597 -9.2304182
23.809238 -1.6088288 -9.6843424
25.845009 -4.489172 9.8944092
24.706419 -3.0538864 8.6918573
24.134396 -1.7834914 7.779985
25.782064 -4.4766679 6.9907508
24.626862 -3.0388055 5.9802003
24.067677 -1.77472 5.1810737
25.686544 -4.4601526 4.2471704
24.597397 -3.0318043 3.4148259
24.052053 -1.7726276 2.7073877
25.609112 -4.4519067 1.6229554
24.536522 -3.0245137 0.91835004
24.012672 -1.7795115 0.29724056
25.533705 -4.4259229 -0.96881551
24.475227 -3.0218816 -1.5307086
23.952801 -1.7670827 -2.0944953
25.462574 -4.4244347 -3.5635662
24.490086 -3.0163929 -4.0264707
23.940264 -1.7616196 -4.5398312
25.436501 -4.4250965 -6.2223511
24.423643 -3.0120256 -6.581893
23.90823 -1.7671491 -7.0621338
25.360319 -4.4054141 -8.9879398
24.358303 -3.020499 -9.2640495
23.843309 -1.7581624 -9.7024069
26.081907 -4.6953626 9.995944
24.769506 -3.2161093 8.72083
24.179041 -1.936031 7.7980599
26.013409 -4.6814432 7.0611348
24.71563 -3.2038398 6.0064168
24.132454 -1.9284458 5.1974678
25.943794 -4.6689868 4.2943621
24.692869 -3.1975057 3.4307394
24.121243 -1.9266061 2.7164552
24.65444 -3.1927431 0.92347926
24.0641 -1.9318584 0.29801825
25.755436 -4.6273141 -0.97828752
24.592896 -3.189728 -1.5392628
24.047182 -1.9224694 -2.1037402
25.703747 -4.6289954 -3.6012266
24.540873 -3.1756308 -4.0379486
23.949173 -1.9100899 -4.5436583
25.624514 -4.6199679 -6.2751598
24.554142 -3.181191 -6.6221972
23.93652 -1.9169842 -7.0738316
25.530617 -4.5965524 -9.0581207
24.470722 -3.1870167 -9.3140678
23.900879 -1.9099276 -9.7304192
24.8288 -3.3788493 8.7488413
24.186466 -2.0860586 7.8044357
26.276808 -4.8954859 7.1406517
24.822372 -3.3726695 6.0372729
24.176636 -2.0813446 5.2096357
26.189281 -4.8792515 4.33987
24.762297 -3.3611083 3.4431858
24.131487 -2.0765126 2.7189927
26.121092 -4.8718739 1.6590658
24.714046 -3.3547735 0.92646551
24.090996 -2.082866 0.29850399
26.011358 -4.8382339 -0.9891175
24.689093 -3.3563685 -1.5465436
24.077351 -2.0736372 -2.1074529
25.93292 -4.834734 -3.6374228
24.613268 -3.3386767 -4.0531549
24.03978 -2.0658352 -4.5631671
25.905022 -4.8348446 -6.3509989
24.599768 -3.3407023 -6.6399055
24.013824 -2.071542 -7.1002994
25.773945 -4.8038177 -9.1547384
24.525064 -3.347255 -9.3423929
23.92881 -2.0599971 -9.7467537
25.008072 -3.5596678 8.819541
24.27107 -2.2434704 7.83603
26.535551 -5.1123571 7.2193532
24.931944 -3.5434935 6.0690966
24.24859 -2.2375107 5.2280011
26.46645 -5.0991178 4.3909025
24.846327 -3.527909 3.4578152
24.191706 -2.231313 2.7272689
26.392534 -5.0902715 1.6782585
24.813839 -3.5235121 0.93099952
24.149685 -2.2373095 0.29939565
26.319887 -5.0628986 -1.0020121
24.781755 -3.5239661 -1.5536733
24.109152 -2.2254858 -2.111392
26.238914 -5.0585699 -3.6846266
24.713224 -3.5067945 -4.073082
24.074675 -2.2177253 -4.5722871
26.154696 -5.047709 -6.419683
24.685755 -3.5067735 -6.6687975
24.022411 -2.2208598 -7.1067338
26.066584 -5.0240502 -9.2694569
24.61977 -3.5141904 -9.3865061
23.97361 -2.2121241 -9.7703457
27.191717 -5.413692 10.457705
25.186359 -3.7428577 8.8903484
24.304775 -2.3970795 7.8515129
27.056385 -5.3850856 7.369904
25.092651 -3.7235506 6.1136642
24.280258 -2.3907702 5.2378926
26.904346 -5.3548994 4.4689183
25.013124 -3.7083037 3.4841292
24.228348 -2.3847075 2.7329981
26.812716 -5.3421564 1.7070296
24.977299 -3.7032104 0.93796724
24.194414 -2.3912697 0.30012643
26.613602 -5.2889414 -1.0144104
24.901505 -3.6970155 -1.5625736
24.149773 -2.3787661 -2.1161878
26.505268 -5.2788005 -3.7265081
24.867746 -3.6845176 -4.1021981
24.119991 -2.3712406 -4.583571
26.405939 -5.2644587 -6.4891567
24.808146 -3.67959 -6.7078342
24.069628 -2.374263 -7.1248779
26.292038 -5.2350235 -9.360877
24.739952 -3.686378 -9.440773
24.070431 -2.3700962 -9.815546
25.312542 -3.9205024 8.9432125
24.42617 -2.5604806 7.8956552
27.599176 -5.6693907 7.5270896
25.292072 -3.9118965 6.167984
24.374287 -2.5511303 5.2614555
25.179039 -3.89094 3.5104995
24.311802 -2.5436349 2.7441208
27.307293 -5.6151175 1.7406775
25.130419 -3.883646 0.9445945
24.282267 -2.5504954 0.30140468
27.147453 -5.5684004 -1.0360417
25.060139 -3.8778691 -1.5739914
24.226639 -2.536525 -2.1242473
27.012089 -5.5522709 -3.8024828
25.030787 -3.865778 -4.1329284
24.201891 -2.5293207 -4.6019974
26.832268 -5.5208511 -6.6021266
24.944189 -3.8563354 -6.7508893
24.155464 -2.532481 -7.1547518
26.714991 -5.4898682 -9.5232763
24.908613 -3.8678854 -9.5140114
24.089815 -2.5213435 -9.8295755
25.421526 -4.0972624 8.9904308
24.494982 -2.7197442 7.9231434
25.384129 -4.0857697 6.1964307
24.430929 -2.7087066 5.2771702
25.331606 -4.0738139 3.5351892
24.418091 -2.7063222 2.7579403
25.285273 -4.0665841 0.95133507
24.395086 -2.7137828 0.30300605
27.795885 -5.8793602 -1.0621449
25.191883 -4.056685 -1.5837997
24.289289 -2.6938543 -2.13115
25.182602 -4.0475807 -4.1620178
24.282217 -2.6884351 -4.6203213
27.41762 -5.8168678 -6.7548079
25.092533 -4.0370665 -6.7976136
24.240231 -2.6918378 -7.1846166
27.207237 -5.7652364 -9.7111788
25.056211 -4.0484071 -9.5796957
24.20697 -2.6838629 -9.883913
25.6399 -4.2940316 9.076807
24.600374 -2.8843594 7.9628086
25.545443 -4.2727013 6.2420907
24.540771 -2.8734221 5.304605
25.474527 -4.2573113 3.5587132
24.506239 -2.868413 2.7698321
25.401562 -4.2453399 0.95667249
24.459433 -2.8729849 0.30401856
25.339901 -4.2401953 -1.5947113
24.410965 -2.8590801 -2.1433244
25.303839 -4.2264996 -4.1862626
24.331606 -2.845135 -4.6329536
25.247499 -4.2210841 -6.8464818
24.298168 -2.8493066 -7.2068348
25.177561 -4.2266936 -9.6358252
24.285833 -2.843559 -9.9230499
25.833208 -4.489532 9.1548204
24.666628 -3.0456731 7.9901524
25.739422 -4.4676685 6.2960706
24.640598 -3.0384884 5.3301129
25.645927 -4.4478798 3.5864024
24.591377 -3.0314479 2.7815046
25.582781 -4.4371529 0.96450484
24.542622 -3.0355375 0.3052783
25.525566 -4.4324398 -1.608077
24.501547 -3.022203 -2.1528654
25.416616 -4.4058084 -4.2093134
24.453892 -3.0116439 -4.6596684
24.404497 -3.0136898 -7.2437205
25.346611 -4.4151478 -9.7107086
24.317884 -2.9986808 -9.9434776
26.080797 -4.6976008 9.2526016
24.755173 -3.2109365 8.0250654
25.979061 -4.6736484 6.3615832
24.727985 -3.2034192 5.3531671
25.903732 -4.6564932 3.6263819
24.67152 -3.1951289 2.7927346
25.80512 -4.6389937 0.97394216
24.619555 -3.1985459 0.30647358
25.735241 -4.6316957 -1.6230462
24.584467 -3.1856925 -2.161828
25.651989 -4.608912 -4.2528977
24.520428 -3.172693 -4.6759682
25.617596 -4.6068034 -6.9616499
24.501925 -3.1784732 -7.2782903
25.530222 -4.6087108 -9.7917032
24.416407 -3.1630418 -9.9915104
24.903204 -3.385638 8.0796366
26.264105 -4.8914838 6.438611
24.786638 -3.3657835 5.3702345
26.183174 -4.8727603 3.6696188
24.766582 -3.3620794 2.8057783
26.089834 -4.8556199 0.98579383
24.71286 -3.364989 0.30788633
25.996012 -4.8434877 -1.6413356
24.673248 -3.3512564 -2.1714027
25.926542 -4.8226433 -4.3032417
24.630615 -3.3407362 -4.7008014
25.831142 -4.8090119 -7.0275679
24.598715 -3.344629 -7.3130007
25.783522 -4.8179808 -9.9000044
24.508791 -3.3280416 -10.037484
25.001835 -3.5554245 8.1185617
26.517939 -5.1073089 6.5083981
24.93795 -3.5423009 5.4076247
24.894115 -3.5350866 2.8226302
26.327171 -5.0671215 0.9959175
24.805048 -3.532697 0.30929911
26.305197 -5.0682974 -1.6627891
24.772041 -3.5196092 -2.1819565
26.227072 -5.0452332 -4.3581791
24.718225 -3.5072088 -4.72154
26.103384 -5.0256062 -7.1098895
24.640656 -3.5044501 -7.3317242
26.056389 -5.0346241 -10.01645
24.607418 -3.4953375 -10.086469
25.104748 -3.7273545 8.1592522
26.997259 -5.3716283 6.6340041
25.071274 -3.7183168 5.44138
25.039457 -3.7126031 2.8416393
26.683365 -5.3056717 1.0106043
24.964108 -3.7117732 0.31156057
26.596449 -5.2938681 -1.6832212
24.889221 -3.6921976 -2.194232
26.44434 -5.2554941 -4.3995585
24.830843 -3.6787529 -4.7472739
26.357819 -5.242517 -7.1878171
24.797405 -3.6821139 -7.3849478
26.308647 -5.2510209 -10.125617
24.719521 -3.6661351 -10.14145
25.278439 -3.9118147 8.2233496
27.523104 -5.6520381 6.7716146
25.204191 -3.8962288 5.4753137
25.152998 -3.8873134 2.8571777
25.132723 -3.8946111 0.31395727
25.044785 -3.8724747 -2.2099998
25.007265 -3.861845 -4.7854433
26.824556 -5.5066662 -7.3241739
24.924648 -3.8574603 -7.4297509
26.675444 -5.4946413 -10.279572
24.883553 -3.8466487 -10.218236
25.416809 -4.0930715 8.2763777
25.372816 -4.0818553 5.517282
25.295296 -4.0683756 2.8761232
28.192152 -5.9662223 1.0704405
25.265396 -4.0740728 0.31592095
28.681644 -6.0757499 -1.8197699
25.169706 -4.0500741 -2.2231741
27.479317 -5.8125987 -4.583271
25.117455 -4.036808 -4.8111792
27.336113 -5.7867041 -7.4734035
25.085073 -4.0400472 -7.4848213
27.235239 -5.7843742 -10.508772
25.02774 -4.0263271 -10.287397
25.595882 -4.2831979 8.3430901
25.472736 -4.2584343 5.5445871
25.474823 -4.2561326 2.8994124
25.420673 -4.2593069 0.31818333
25.377922 -4.2434869 -2.2477219
25.308699 -4.2270064 -4.8526883
25.247097 -4.2252336 -7.5407591
25.185841 -4.2104583 -10.378412
25.790834 -4.478672 8.4154339
25.719807 -4.4621329 5.6042209
25.621841 -4.4424653 2.9191928
25.533661 -4.439477 0.31993255
25.469673 -4.4196453 -2.2582076
25.428713 -4.407599 -4.8807936
25.383968 -4.4084225 -7.5895762
25.323277 -4.3933249 -10.445958
26.074102 -4.6928539 8.5170984
25.967733 -4.6694541 5.6643791
25.839218 -4.6561203 0.32411301
25.726547 -4.6270041 -2.283457
25.648537 -4.6079817 -4.9283209
25.579477 -4.604238 -7.6563339
25.477396 -4.5812688 -10.52093
26.336588 -4.9071174 8.6125135
26.157507 -4.8667154 2.9868033
26.094141 -4.8675528 0.3276791
25.966858 -4.8348932 -2.3073764
25.908329 -4.8189416 -4.9838276
25.798691 -4.8073063 -7.7306318
25.722099 -4.7883854 -10.633914
26.631968 -5.1314335 8.7192402
26.403711 -5.0803356 3.018419
26.376188 -5.0878325 0.33160672
26.296015 -5.0633178 -2.3393414
26.152235 -5.0305195 -5.0365891
26.089069 -5.027246 -7.8267403
26.01145 -5.007576 -10.766036
27.147051 -5.4036422 8.8985643
26.972876 -5.3645215 5.9041748
26.815239 -5.3303494 3.0691452
26.553083 -5.2819872 -2.3650494
26.33741 -5.2429056 -7.9107451
27.464754 -5.6377535 6.0193019
27.330482 -5.6073084 3.1319966
26.884863 -5.5144043 -5.1903262
26.74608 -5.4950843 -8.0434704
26.609087 -5.4620934 -11.040309
28.573967 -6.0453706 3.2786856
28.200865 -5.9802146 0.35587072
27.287584 -5.7810631 -8.2168322
27.126638 -5.7420139 -11.269451
28.005976 -6.1079249 -11.650113
28.377087 6.1828613 -9.3346243
27.908436 5.9043627 -0.34874034
27.241833 5.7606525 -8.9516878
27.602703 5.6628985 8.2913141
27.415056 5.6178737 5.2806163
27.279202 5.5915184 2.4294941
27.154316 5.5709686 -0.3388834
26.948166 5.5067062 -3.0986431
26.697964 5.4747219 -8.7617693
27.213173 5.4075065 11.268504
26.884281 5.3374348 5.1719742
26.728121 5.3078814 2.3774693
26.647686 5.2968512 -0.33214888
26.48394 5.2427654 -3.0415077
26.404413 5.239285 -5.7741241
26.325563 5.2302418 -8.6288595
26.553328 5.1088743 7.9566693
26.496059 5.0915775 5.0911822
26.383564 5.0713882 2.3440089
26.291405 5.058538 -0.32731494
26.071819 5.0137401 -8.5354443
26.415648 4.9128656 10.912476
26.290367 4.8911886 7.8687325
26.183224 4.8650646 5.0252404
26.14015 4.8584728 2.3196909
26.055075 4.8474703 -0.32399637
25.939438 4.8049617 -2.9719794
25.917894 4.8129516 -5.6543899
25.773821 4.7926302 -8.4280987
26.122614 4.6927228 10.779324
26.026848 4.6771221 7.7811255
25.884752 4.6454811 4.9623919
25.878183 4.6456966 2.2938712
25.786535 4.6339941 -0.32029748
25.659496 4.5904412 -2.9366231
25.641676 4.5990796 -5.5878668
25.505512 4.5810094 -8.3310127
25.893972 4.4878168 10.673412
25.785934 4.4706764 7.7007542
25.683924 4.4469452 4.9185677
25.623018 4.437778 2.2687964
25.558786 4.4313507 -0.31712487
25.471785 4.3957396 -2.9119983
25.43269 4.4006977 -5.5363355
25.39212 4.3999882 -8.2849998
25.563038 4.2706332 7.6262183
25.504881 4.2549272 4.8791885
25.424414 4.242867 2.2488635
25.389605 4.2417145 -0.31469685
25.306917 4.2075496 -2.8901443
25.2393 4.2078991 -5.4885135
25.231726 4.212894 -8.2240772
28.233904 6.1534915 -10.087394
25.489861 4.0962415 10.485327
25.437468 4.0893793 7.5811286
25.33918 4.0676384 4.8426232
25.294874 4.0618801 2.2351584
28.341288 5.9998016 1.802611
25.237152 4.0572309 -0.31249279
27.755157 5.866437 -1.0597626
25.197025 4.0305581 -2.8747158
25.107979 4.0278225 -5.4544792
25.051258 4.0249233 -8.1570511
27.185453 5.7504849 -9.7000141
25.334318 3.9119375 10.411275
27.9009 5.7236586 10.738484
25.223934 3.8964336 7.510222
27.567768 5.6565275 7.5243859
25.197407 3.8864405 4.8108802
25.164949 3.8827794 2.2215309
25.092588 3.8761985 -0.31040239
27.108807 5.5562758 -1.033762
25.009243 3.8432908 -2.8505478
26.966045 5.5173182 -3.7840416
24.977417 3.8498263 -5.4208817
26.813566 5.4929652 -6.5922809
24.929081 3.8485339 -8.1094265
26.635567 5.4636407 -9.4916687
25.138166 3.7238727 10.32108
27.18642 5.4034705 10.450538
25.105358 3.7205439 7.4679794
25.048693 3.7062962 4.7812514
26.896423 5.3545442 4.4762697
24.992535 3.6993203 2.2042649
26.76141 5.3230867 1.698246
24.934477 3.6952736 -0.31758556
26.607153 5.2835498 -1.0007699
24.864515 3.6650257 -2.824744
26.453335 5.2491975 -3.7160151
24.832903 3.671705 -5.3921733
26.418674 5.2433729 -6.4861145
24.782413 3.6703501 -8.0497637
26.305771 5.2279992 -9.3716297
25.014414 3.5488265 10.261137
26.673191 5.1315379 10.240953
24.942574 3.5401523 7.4129553
26.540007 5.1070728 7.2215123
24.88422 3.5260696 4.7456384
26.474932 5.1019511 4.4008293
24.883707 3.5273218 2.1927166
26.36982 5.0771937 1.6713878
24.798923 3.5198178 -0.31557801
26.291317 5.0533514 -0.98770541
24.733736 3.4908252 -2.8074005
26.159061 5.0241752 -3.6702776
24.712345 3.4990704 -5.3612323
26.133011 5.0202107 -6.4082971
24.632862 3.4938788 -7.9940729
26.029726 5.0073133 -9.262166
24.887306 3.3751466 10.200309
24.825312 3.3682477 7.3718238
26.231649 4.8810158 7.1293254
24.773565 3.3554618 4.7205195
26.209532 4.8842092 4.3516488
24.763306 3.3553886 2.1802516
26.108616 4.8609571 1.6529104
24.723249 3.3544538 -0.31434718
26.018866 4.8356304 -0.97633702
24.661335 3.3264041 -2.7968132
25.930443 4.8154817 -3.6339867
24.622255 3.3323371 -5.3371515
25.842188 4.8001175 -6.3296404
24.53577 3.3266606 -7.9557891
25.766996 4.7930083 -9.158042
24.802158 3.2087429 10.157149
26.108164 4.6913471 10.001159
24.758984 3.2046592 7.3461509
26.003366 4.6736455 7.0593543
24.699942 3.1912789 4.7026715
25.931683 4.6679764 4.3006802
24.623693 3.182734 2.1661994
25.837408 4.646616 1.6339046
24.64411 3.1898441 -0.31308621
25.753815 4.6230726 -0.96530855
24.565472 3.1601248 -2.78369
25.666607 4.6037488 -3.5929854
24.520889 3.165529 -5.3108687
25.571451 4.5876937 -6.2563152
24.453234 3.1627936 -7.9225845
25.493898 4.5805497 -9.0508175
24.740965 3.0465972 10.124243
25.814312 4.4752145 9.8778887
24.677969 3.0403347 7.3164406
25.726673 4.4611359 6.9766755
24.579271 3.0224733 4.6760778
25.699183 4.4635038 4.2574987
24.568338 3.0224309 2.1596575
25.590151 4.440228 1.6165153
24.497734 3.0181825 -0.31098545
25.538149 4.4227848 -0.95618981
24.467564 2.9950323 -2.7704606
25.473623 4.4079762 -3.5621166
24.436327 3.0022931 -5.2884645
25.421724 4.3999996 -6.2129598
24.380234 3.0013726 -7.8928185
25.336672 4.391993 -8.9852629
24.633814 2.8800735 10.072974
25.620626 4.2798758 9.793541
24.590921 2.8765457 7.2852616
25.543425 4.268084 6.9197493
24.513706 2.8618357 4.6601763
25.48715 4.2657418 4.2179565
24.459419 2.8567917 2.1485019
25.404222 4.2475643 1.6030936
24.430513 2.8578348 -0.30990368
25.352057 4.2305002 -0.94823235
24.392776 2.8340752 -2.7599716
25.302902 4.2186971 -3.5345576
24.353077 2.8404932 -5.2665768
25.236908 4.2086887 -6.1613646
28.567978 6.2230663 -7.8160238
24.27725 2.8375862 -7.853694
25.208456 4.210609 -8.9304619
28.003334 6.1001616 -10.818246
24.519547 2.7143147 10.019251
25.433857 4.0884233 9.7123756
24.481144 2.7115419 7.247674
25.390947 4.0826221 6.8715272
24.438398 2.7011547 4.642621
25.359159 4.0845222 4.1925483
24.381533 2.6961577 2.140167
25.310261 4.0723729 1.5955576
28.237083 5.9809794 1.0760661
24.311937 2.692853 -0.30818415
25.229925 4.0511618 -0.94271684
24.28606 2.6707528 -2.7459908
25.154192 4.035428 -3.5102592
24.256117 2.6784313 -5.2419553
25.105417 4.0285912 -6.1231122
24.210571 2.6793149 -7.8266578
25.034397 4.0238008 -8.8598862
24.458912 2.5557864 9.9878769
25.290476 3.9063396 9.6482887
27.65521 5.6659813 9.8541861
24.403162 2.5514328 7.2198162
25.238979 3.8994732 6.8237958
27.582777 5.6719937 6.7814884
24.350443 2.5402961 4.6228642
25.175482 3.89661 4.1581502
27.395748 5.6288047 3.8501534
24.29846 2.5361552 2.1314688
25.148277 3.8881612 1.5838124
24.271387 2.5377076 -0.30746692
25.055128 3.8655477 -0.93528163
27.107859 5.5593162 -1.7083004
24.202593 2.5113723 -2.7347596
24.993942 3.8525646 -3.4845319
24.170639 2.518975 -5.2200446
24.952688 3.8471851 -6.0799904
26.779234 5.4900942 -7.3076501
24.153006 2.5230284 -7.8028975
24.917683 3.8483512 -8.8100576
26.619705 5.4574761 -10.257075
24.35671 2.3941195 9.9399576
25.154779 3.7274976 9.5876141
24.318066 2.3917856 7.1901631
25.074074 3.7166169 6.7729177
24.280874 2.3825262 4.6067944
25.057274 3.7210288 4.1347771
26.874374 5.3500357 3.7721961
24.226749 2.3784916 2.123858
25.004913 3.7090471 1.5733205
26.733175 5.3205199 1.0161899
24.215315 2.3817317 -0.30656573
24.954958 3.6934736 -0.9306789
24.139101 2.3551672 -2.7259011
24.858963 3.6757476 -3.4625044
26.448721 5.2600112 -4.4031177
24.098175 2.3620458 -5.2011662
24.795082 3.6672735 -6.0359912
26.364792 5.2367654 -7.1856513
24.078938 2.3660259 -7.7741313
24.723522 3.6631892 -8.7332973
26.270844 5.2181921 -10.110126
24.296455 2.2377639 9.9095774
25.005125 3.5486639 9.5220957
26.597042 5.1099253 9.4540787
24.256208 2.2355163 7.1676831
24.962875 3.5437391 6.7368808
26.542618 5.1194372 6.5098186
24.201069 2.2248578 4.5889764
24.881283 3.5389977 4.1020761
26.428885 5.0929608 3.7052093
24.167048 2.2230022 2.1173887
24.802994 3.5236974 1.5592258
26.376135 5.0814109 1.0014139
24.148949 2.2256827 -0.30554688
24.798937 3.5150228 -0.92403841
26.259392 5.050334 -1.6508009
24.106413 2.2027421 -2.7206323
24.722742 3.5007305 -3.440474
24.053751 2.2087693 -5.1885552
24.671925 3.4944999 -6.0006776
24.006521 2.2102737 -7.7462268
24.617573 3.4932623 -8.6881371
25.980154 4.9949503 -9.9862738
24.250523 2.0835547 9.8854427
24.862959 3.3729916 9.4598989
26.318274 4.8891149 9.3441496
24.227869 2.0830643 7.1553969
24.80794 3.36659 6.6893668
26.279783 4.9016891 6.4378581
24.170591 2.0725763 4.5806999
24.766788 3.3678043 4.0797157
26.171684 4.8770409 3.6648862
24.141779 2.0713749 2.1140213
24.689266 3.3531239 1.5507537
26.105099 4.8632655 0.98997205
24.089788 2.0712442 -0.3046318
24.679001 3.3436844 -0.91878772
26.000782 4.8353491 -1.6326474
24.04001 2.0480165 -2.7116687
24.626831 3.333143 -3.4242163
25.927732 4.8264222 -4.3062
24.03056 2.0580285 -5.1807313
24.618502 3.3329775 -5.9825974
25.878895 4.8109279 -7.0365996
23.982605 2.0597508 -7.7342854
24.556602 3.3310304 -8.6592417
25.736401 4.7845235 -9.8811092
24.205847 1.9332466 9.8658981
24.778044 3.2061603 9.423914
26.09219 4.6853924 9.2557621
24.175919 1.9307269 7.1393209
24.775417 3.2072961 6.6739964
25.99156 4.6729527 6.3645182
24.128069 1.9282504 4.5683818
24.692722 3.1965375 4.0641689
25.926399 4.6648588 3.6296599
24.065104 1.9187293 2.1066337
24.632584 3.1838164 1.5507958
25.850969 4.6510448 0.97569764
24.048357 1.9175233 -0.29995617
24.604738 3.1924632 -0.92756224
25.767143 4.6306925 -1.6249839
23.982569 1.9009526 -2.709543
24.534973 3.1607711 -3.40662
25.682024 4.623219 -4.2688117
23.957924 1.9104024 -5.1565351
24.524704 3.1668315 -5.9596047
25.602673 4.6048517 -6.9576287
23.940683 1.9115685 -7.7219405
24.469095 3.1657598 -8.6153374
25.460253 4.5616689 -9.7625685
24.169764 1.7811862 9.8465509
24.69792 3.041831 9.3861647
25.865822 4.4810929 9.1655359
24.137686 1.7786931 7.1246729
24.658701 3.0384672 6.6374078
25.750881 4.4667463 6.2987533
24.090431 1.7765528 4.5591059
24.595705 3.0306518 4.045064
25.659174 4.4544148 3.5883548
24.024914 1.7672436 2.1021268
24.553377 3.020524 1.5446134
25.625948 4.4484076 0.96615618
24.005842 1.7659695 -0.29928508
24.492926 3.0252588 -0.92263001
25.492752 4.4200835 -1.6059391
23.960115 1.7513018 -2.7057412
24.467222 2.999541 -3.3945937
25.466269 4.4232321 -4.2283583
23.943182 1.7614497 -5.150939
24.444149 3.0040603 -5.9354386
25.399412 4.4075785 -6.8949127
23.880154 1.7593447 -7.6987901
24.365191 3.0004301 -8.5721102
25.277063 4.3689437 -9.6818647
24.105503 1.6278031 9.8161192
24.599623 2.8766072 9.3419247
25.597277 4.2729621 9.060915
24.070032 1.6252791 7.1016269
24.535858 2.8706081 6.5994768
25.543285 4.2694592 6.2414494
24.031155 1.6239911 4.5459161
24.497524 2.8660703 4.025949
25.469891 4.2607336 3.5581608
23.996868 1.617206 2.0987651
24.486538 2.8598933 1.5392758
25.412727 4.2509346 0.95711583
23.964499 1.6151527 -0.29864046
24.442787 2.8669119 -0.92006135
25.355852 4.2362561 -1.5956475
23.929857 1.6015383 -2.701164
24.357147 2.8344588 -3.3768451
25.274696 4.2303638 -4.1921611
23.87108 1.6089458 -5.1332064
24.335964 2.8392985 -5.9048285
25.240917 4.2207022 -6.8447285
23.829294 1.608654 -7.6790667
24.279512 2.8387551 -8.5356779
25.18486 4.194025 -9.6365099
27.99861 6.1078496 -11.629668
24.060377 1.4765096 9.7938681
24.513123 2.7141323 9.3025751
25.436237 4.0858178 8.9948673
24.000551 1.4727099 7.0783277
24.486404 2.7126262 6.5815744
25.385506 4.0831342 6.1966581
23.97732 1.4726175 4.5339379
24.443079 2.7077737 4.014195
25.306282 4.0739031 3.5317461
28.609577 6.05862 3.2829146
23.956535 1.466884 2.0944111
24.349503 2.6925504 1.5295939
25.283798 4.0700488 0.95130152
23.897728 1.463411 -0.29769087
24.338768 2.703423 -0.91550422
25.186745 4.0493064 -1.5834121
27.608938 5.8445964 -2.4610112
23.87826 1.4509722 -2.6942837
24.29018 2.6757107 -3.3652215
25.181471 4.0560818 -4.1724916
27.489101 5.8276882 -5.2968822
23.806057 1.4578863 -5.1172042
24.276266 2.6814547 -5.8862405
25.113117 4.0410914 -6.8032203
27.254061 5.7654977 -8.2062206
23.80109 1.4601016 -7.6669455
24.202686 2.6793427 -8.5027294
25.004662 4.006494 -9.5579739
27.152143 5.7488937 -11.263211
24.018103 1.3260409 9.7731647
24.431257 2.5534232 9.2653875
25.272627 3.9006197 8.9283791
27.646572 5.6719761 9.07306
23.965345 1.3230003 7.0654173
24.397453 2.5513353 6.5533347
25.230249 3.8995001 6.1528025
27.494358 5.6452951 6.0258541
23.918747 1.3217567 4.5212436
24.369442 2.5483537 3.9994588
25.19702 3.8978546 3.5130932
23.866207 1.3144159 2.0857697
24.280327 2.5341971 1.524243
25.103004 3.8830779 0.94358492
27.184513 5.5712953 0.34255797
23.855633 1.3139611 -0.29845172
24.237324 2.5417027 -0.90614867
25.035788 3.8676019 -1.5810043
27.100784 5.5635071 -2.4131362
23.808447 1.3001565 -2.6846035
24.179453 2.5198281 -3.349102
24.986803 3.8607018 -4.124691
26.915733 5.530807 -5.1868391
23.806389 1.3113378 -5.1197143
24.182348 2.5209892 -5.8560328
24.968077 3.8607364 -6.7602677
26.750767 5.4877615 -8.0365419
23.745834 1.3105141 -7.6458597
24.116789 2.5201411 -8.4663801
24.856646 3.8264949 -9.4956274
26.613617 5.4644713 -11.022371
23.963284 1.1755774 9.7477398
24.346966 2.3936853 9.2276764
25.120842 3.7195287 8.8665257
23.957054 1.1751438 7.0607142
24.294909 2.3900046 6.521728
25.087984 3.7200439 6.1124272
26.997055 5.3707652 5.9095273
23.910131 1.1741699 4.5181675
24.267347 2.3872409 3.9802241
25.035187 3.7156773 3.4872851
26.795782 5.3318076 3.0670445
23.892069 1.1688437 2.0873637
24.19499 2.3753085 1.5179423
24.98914 3.7086117 0.93843186
26.682985 5.298121 0.33582214
23.856974 1.1672541 -0.29837331
24.186274 2.3864067 -0.90367562
24.921772 3.6935668 -1.5723433
26.530354 5.2769661 -2.3594158
23.789482 1.1527622 -2.681617
24.124496 2.3645611 -3.3394177
24.864586 3.6857548 -4.1007056
23.762753 1.1627331 -5.1086993
24.090853 2.3621182 -5.8302565
24.791336 3.677798 -6.7061772
26.343512 5.235981 -7.9043932
23.726067 1.1634461 -7.6370525
24.036076 2.3627067 -8.4327974
24.755926 3.6556346 -9.4484034
23.981985 1.0290315 9.7525949
24.322527 2.2406878 9.2130299
25.013924 3.5469899 8.820941
26.590494 5.1160984 8.7052155
23.957817 1.0278668 7.0589476
24.233164 2.2338872 6.5013514
24.930553 3.5405049 6.0686636
26.496437 5.1023631 5.7929821
23.897226 1.0265933 4.5144534
24.190947 2.2299435 3.9653745
24.857498 3.5335612 3.4594486
26.404142 5.0856543 3.0185888
23.883293 1.0215598 2.0860102
24.131382 2.2196569 1.5130687
24.841309 3.5310302 0.93204904
23.794636 1.0178946 -0.29612306
24.146902 2.2330043 -0.90658724
24.74514 3.5123587 -1.5513217
26.233023 5.0506954 -2.3296812
23.790257 1.0065235 -2.6818087
24.095207 2.2061698 -3.3320179
24.719122 3.5161071 -4.0844641
23.734358 1.0154047 -5.0969105
24.060656 2.2101917 -5.8231087
24.677464 3.5062926 -6.666584
23.697107 1.0163147 -7.6261311
24.00878 2.2113714 -8.4188786
24.612616 3.4802959 -9.3820343
25.998266 5.0064454 -10.744508
23.961758 0.88090241 9.7419882
24.265923 2.0853987 9.1865692
24.884077 3.3729544 8.7676888
23.907656 0.87878597 7.0424466
24.216949 2.0826192 6.4934506
24.813114 3.368639 6.0349317
23.878359 0.87903357 4.5097857
24.165522 2.0781448 3.9590421
24.768139 3.3659453 3.4440734
23.833754 0.87296784 2.0811763
24.12158 2.069577 1.5116293
24.711782 3.3580587 0.92639869
26.050821 4.8410954 0.32709357
23.796215 0.87171978 -0.29607055
24.109423 2.0804226 -0.90468377
24.692673 3.3504786 -1.5467144
25.998877 4.8403673 -2.3062065
23.783333 0.86007267 -2.6803827
24.055811 2.0538025 -3.3247647
24.643948 3.3512738 -4.0685682
25.926416 4.8347788 -4.9714003
23.745882 0.86996466 -5.0981421
24.002796 2.0564365 -5.8059425
24.586451 3.3395872 -6.6363358
25.800228 4.7996588 -7.7306647
23.679474 0.87003231 -7.6185946
23.979652 2.060385 -8.4040737
24.531277 3.3153937 -9.3430977
25.729242 4.7911038 -10.620976
23.927517 0.73265904 9.7260551
24.206474 1.9307406 9.1594057
24.76573 3.202287 8.7189026
26.052214 4.6817517 8.5095415
23.941889 0.73297149 7.0510726
24.151134 1.9277507 6.4725099
24.732635 3.2032847 6.0104642
25.980627 4.6731448 5.667244
23.835188 0.73102647 4.5007
24.112566 1.9246204 3.9483569
24.700262 3.2024899 3.4318378
25.885622 4.657095 2.9525537
23.806713 0.72573632 2.078387
24.066214 1.9161478 1.5073946
24.644205 3.1949944 0.92311305
25.823065 4.635035 0.32387066
23.797203 0.72557324 -0.29602188
24.040951 1.925979 -0.90165401
24.597404 3.1839714 -1.5394943
25.722168 4.6257358 -2.2791007
23.772711 0.71366096 -2.678642
23.951691 1.8969516 -3.3087032
24.540771 3.1840041 -4.0482326
25.683025 4.6265063 -4.9191937
23.713717 0.72311628 -5.0901885
23.949896 1.9039469 -5.7902122
24.500254 3.1748991 -6.607687
25.562429 4.5933261 -7.6508226
23.660091 0.72397858 -7.610786
23.920736 1.9075395 -8.3791656
24.447577 3.151458 -9.3036795
25.462219 4.5799117 -10.498951
23.917213 0.58547759 9.7202244
24.167315 1.7784563 9.1402874
24.702915 3.0401754 8.6900568
25.832436 4.4788094 8.4286184
23.870335 0.58420277 7.028811
24.128382 1.7770125 6.4633684
24.645481 3.0383577 5.9846411
25.734032 4.4659567 5.6073704
23.853254 0.58510691 4.5033488
24.069725 1.7726408 3.9394867
24.617191 3.0382512 3.4176416
25.639938 4.4506536 2.9213607
23.791105 0.57916993 2.0766749
23.997025 1.7625322 1.5023552
24.53735 3.0281711 0.91839719
25.540365 4.4227057 0.31997868
23.744226 0.57815528 -0.29531321
24.017935 1.7758882 -0.90036517
24.498543 3.0184543 -1.5321188
25.488493 4.4224358 -2.2559493
23.750299 0.56715184 -2.675674
23.943474 1.748534 -3.3060238
24.476921 3.0231228 -4.034564
25.461697 4.4255118 -4.8715091
23.706341 0.57732117 -5.0877485
23.905483 1.7528771 -5.7767653
24.403507 3.0102286 -6.5764899
25.386209 4.4010396 -7.5898547
23.654161 0.57854664 -7.607594
23.85935 1.7553846 -8.3537331
24.33334 2.9850616 -9.2530613
25.312893 4.3928843 -10.426069
23.875095 0.43788317 9.7018328
24.121233 1.6263227 9.1189127
24.584557 2.8725889 8.6420574
25.585972 4.2745352 8.339488
23.892687 0.43807855 7.0344691
24.074472 1.6245869 6.446136
24.543659 2.8730314 5.9555225
25.507019 4.2655063 5.5520968
23.802168 0.43773779 4.4931126
24.008873 1.6201088 3.9278266
24.507015 2.872103 3.3998351
25.512711 4.2674775 2.9038265
23.791283 0.43312627 2.0764196
23.979988 1.6134124 1.5006405
24.460812 2.8664637 0.91485691
25.366722 4.2324891 0.31747189
23.735338 0.43223423 -0.29516411
23.916489 1.6209005 -0.89617258
24.416187 2.8563299 -1.5258435
25.368395 4.2414217 -2.2429738
23.711634 0.42067236 -2.6709771
23.901316 1.5980808 -3.2987866
24.378813 2.8592503 -4.0154252
25.290438 4.2360454 -4.8336782
23.661228 0.43097284 -5.0774035
23.868322 1.602975 -5.7653003
24.325947 2.8492408 -6.5507531
25.231382 4.2148948 -7.5356908
23.624001 0.43278709 -7.5968966
23.789156 1.6035261 -8.3255548
24.26919 2.8261492 -9.2219
25.181187 4.2110314 -10.360983
23.887579 0.29150516 9.7059946
24.05286 1.473515 9.0894756
24.493534 2.7097185 8.6040535
25.42218 4.0869908 8.2777719
23.849239 0.29091024 7.0210195
24.010418 1.4723269 6.426445
24.461834 2.7114077 5.931519
25.368324 4.0824637 5.5163507
23.827431 0.29196432 4.4974589
23.999485 1.4716053 3.9247391
24.412186 2.7092481 3.3843095
25.323496 4.0762596 2.8793895
23.783733 0.28701976 2.075568
23.955153 1.4641482 1.4984959
24.396145 2.7072442 0.91179991
25.224689 4.0498667 0.31537735
23.744608 0.28667411 -0.295252
23.89735 1.4723568 -0.8951
24.315838 2.6934555 -1.5185109
25.184969 4.052062 -2.2245159
23.678431 0.27476245 -2.6669965
23.864901 1.4486164 -3.2924719
24.281378 2.6968915 -3.9965761
25.1271 4.0503445 -4.7976198
23.686354 0.28605908 -5.0823231
23.808945 1.4522971 -5.7486973
24.206383 2.6847768 -6.5139966
25.05991 4.0283532 -7.4769554
23.60747 0.28759643 -7.5908704
