# .PCD v0.7 - Point Cloud Data file format
VERSION 0.7
FIELDS x y z
SIZE 4 4 4
TYPE F F F
COUNT 1 1 1
WIDTH 1540
HEIGHT 1
VIEWPOINT 0 0 0 1 0 0 0
POINTS 1540
DATA ascii
25.174969 -0.76723218 6.7382383
25.106478 0.46952379 6.0537071
25.418032 1.7264869 5.4647231
25.545841 -2.0407746 4.8373609
25.117348 -0.7718904 4.1044574
25.074013 0.46680579 3.451056
25.352221 1.7036766 2.860651
25.480463 -2.0469294 2.22575
25.107788 -0.78015018 1.5622396
25.052622 0.45829171 0.94467384
25.322828 1.7060913 0.32498056
25.44426 -2.0337098 -0.31624898
25.072155 -0.76777464 -0.93938792
25.027815 0.45234388 -1.5542991
25.323067 1.7107549 -2.2093029
25.406958 -2.0514169 -2.8641443
25.026464 -0.77356708 -3.4490373
24.971029 0.46283954 -4.0678158
25.261568 1.7003826 -4.7840452
25.343878 -2.041378 -5.461113
25.000826 -0.77845281 -6.0302033
24.939419 0.46242636 -6.6666751
25.166258 1.693792 -7.4216571
25.302574 -2.0278106 -8.1527805
24.937784 -0.76780796 -8.7127008
24.863787 0.45098227 -9.3777666
25.151653 1.6992687 -10.235268
25.670942 -2.2189007 10.46311
25.220284 -0.93338394 9.5190058
25.173332 0.31176835 8.7970505
25.429256 1.5582701 8.1926794
25.65148 -2.214906 7.5757546
25.188486 -0.92237312 6.7432442
25.113899 0.31552747 6.0549154
25.352921 1.5658461 5.4485559
25.614073 -2.204474 4.8527513
25.165453 -0.92795897 4.1131716
25.063423 0.31278372 3.4492695
25.327179 1.5459487 2.8567016
25.582834 -2.2132206 2.2358363
25.126755 -0.93509555 1.5637473
25.054056 0.30455208 0.94463974
25.263935 1.5464647 0.32409689
25.548719 -2.1999049 -0.31770912
25.064983 -0.92152697 -0.93931335
25.015205 0.29858956 -1.553373
25.224354 1.5486673 -2.19982
25.497099 -2.2162433 -2.8757851
25.015005 -0.92688078 -3.4481769
24.981716 0.30971459 -4.06917
25.18553 1.54009 -4.767766
25.442657 -2.2065413 -5.4852118
24.989332 -0.93160743 -6.0286956
24.927565 0.30921584 -6.6628742
25.172985 1.5391479 -7.4207163
25.400013 -2.1925523 -8.1883574
24.969 -0.92215317 -8.72542
24.876175 0.2985335 -9.3815718
25.094509 1.5407894 -10.207974
25.824322 -2.3918846 10.531408
25.2696 -1.090511 9.5399656
25.149492 0.15714386 8.7882175
25.336193 1.3965793 8.1597824
25.761305 -2.3837233 7.6123652
25.236135 -1.0792094 6.7576461
25.107773 0.16137674 6.0530858
25.311649 1.4074514 5.4377284
25.69739 -2.3705757 4.8712006
25.19544 -1.0839092 4.119082
25.070679 0.1590284 3.450069
25.23699 1.3850707 2.8455167
25.67296 -2.3798101 2.244947
25.129494 -1.089641 1.5643044
25.013222 0.15056333 0.94304752
25.205002 1.387678 0.32322553
25.624914 -2.3649497 -0.31883109
25.095995 -1.0768991 -0.94070542
24.955032 0.14473662 -1.5495522
25.193958 1.3916868 -2.1963832
25.574188 -2.3811371 -2.8860734
25.0723 -1.0830935 -3.4569254
24.948309 0.15620571 -4.0634966
25.141945 1.3826349 -4.7578192
25.513277 -2.3704767 -5.5034695
25.023825 -1.086688 -6.0385118
24.935894 0.15630063 -6.6647186
25.101088 1.3802136 -7.3968854
25.447561 -2.3540497 -8.2081881
24.998529 -1.0768787 -8.7378836
24.853765 0.14575115 -9.3726072
25.075237 1.3852224 -10.196485
25.901936 -2.5594621 10.569265
25.337418 -1.249239 9.5682821
25.144697 0.002825897 8.7863693
25.325962 1.2401959 8.1538839
25.83794 -2.5508041 7.6394925
25.265175 -1.2358027 6.7673249
25.109962 0.0073157838 6.0534887
25.272602 1.2497811 5.4275904
25.784029 -2.5382156 4.8904839
25.239002 -1.2409773 4.1273713
25.070436 0.0051944423 3.449966
25.201851 1.2280902 2.8406515
25.796465 -2.5509965 2.2570727
25.208698 -1.248088 1.5696821
25.023617 -0.0029189165 0.94342238
25.206427 1.2326734 0.32314071
25.708546 -2.5318496 -0.32005891
25.155281 -1.2341207 -0.94319385
24.960823 -0.008389107 -1.5498857
25.139469 1.2340029 -2.1909318
25.689386 -2.5509505 -2.9007854
25.111721 -1.2392105 -3.4633441
24.954744 0.0031235497 -4.0644646
25.087303 1.2252809 -4.7459669
25.587557 -2.5358291 -5.5227451
25.097593 -1.2442222 -6.0580416
24.859247 0.0032837274 -6.6441021
25.051281 1.2233477 -7.3798575
25.53211 -2.5199664 -8.2402916
25.050386 -1.2331479 -8.7584896
24.858961 -0.0067527494 -9.3744059
25.007401 1.2276137 -10.165647
26.001347 -2.7304854 10.616467
25.339329 -1.4052404 9.5720797
25.156212 -0.15153122 8.7905521
25.259222 1.081612 8.1301069
25.961945 -2.7239988 7.680954
25.343931 -1.3955842 6.7905865
25.122492 -0.14683193 6.0566125
25.210447 1.0916848 5.4127011
25.862045 -2.7062199 4.908339
25.294655 -1.3993438 4.1377983
25.072622 -0.14865054 3.4503274
25.170046 1.0717764 2.836272
25.839039 -2.7154028 2.262213
25.233158 -1.4045563 1.5717121
25.016684 -0.15642059 0.94317931
25.127527 1.0743101 0.32203868
25.765242 -2.6971586 -0.32096475
25.237951 -1.3934562 -0.94659632
24.96928 -0.16160379 -1.5504433
25.080866 1.0769057 -2.1852071
25.717342 -2.7131813 -2.9057674
25.176979 -1.3973399 -3.4734612
24.965717 -0.1500646 -4.0663252
25.058657 1.0698011 -4.7392163
25.736418 -2.7101486 -5.5583591
25.147491 -1.4014271 -6.0720477
24.905058 -0.14952755 -6.656466
24.984739 1.0664722 -7.3581891
25.65192 -2.6908209 -8.284132
25.096682 -1.3898398 -8.7774925
24.856916 -0.1592745 -9.373827
24.973816 1.0724025 -10.149127
26.163378 -2.9099143 10.689714
25.413433 -1.5658196 9.6035223
25.137552 -0.30567414 8.7845221
25.217062 0.92483181 8.1145573
26.100609 -2.9005685 7.727098
25.379295 -1.553784 6.8024883
25.103987 -0.30077264 6.0524826
25.178743 0.93556648 5.4045601
26.044785 -2.887006 4.9462895
25.321878 -1.5567534 4.1437364
25.057682 -0.30232689 3.4484618
25.140812 0.9160282 2.8322911
25.993944 -2.8930461 2.2772863
25.275703 -1.5625499 1.5749297
25.033144 -0.31013876 0.94385391
25.133715 0.92011273 0.32203957
25.92988 -2.8753459 -0.3232294
25.243011 -1.5491514 -0.94712478
24.972887 -0.31487325 -1.550758
25.076233 0.92259598 -2.1842694
25.865799 -2.8894265 -2.9244895
25.198761 -1.5536976 -3.4777162
24.947643 -0.30304587 -4.0636077
25.022423 0.91447705 -4.7312136
25.800156 -2.8770289 -5.5758324
25.194096 -1.5591484 -6.0854959
24.908035 -0.30239227 -6.6576319
24.957148 0.91191852 -7.3482766
25.753498 -2.8613417 -8.3224497
25.127308 -1.5462422 -8.791357
24.893719 -0.31227046 -9.3882513
24.931852 0.917377 -10.129597
26.281055 -3.0863695 10.74533
25.478743 -1.7268339 9.6320238
25.167444 -0.46049947 8.7957907
25.192982 0.76919144 8.1051369
26.212023 -3.0758846 7.7655239
25.444386 -1.7145396 6.8226261
25.148481 -0.4556503 6.0637698
25.158348 0.78025913 5.3990531
26.158344 -3.0621846 4.9713311
25.381145 -1.7167833 4.1550803
25.112974 -0.4571211 3.4563923
25.130962 0.76129556 2.8306019
26.114979 -3.0688539 2.2894967
25.360695 -1.7240714 1.5808551
25.075317 -0.46455872 0.94553375
25.072731 0.76386237 0.32119209
26.065334 -3.0523803 -0.32514524
25.311005 -1.7092762 -0.95005155
25.021801 -0.46906012 -1.5539451
25.025696 0.76700574 -2.1794164
26.030567 -3.0696599 -2.9451931
25.245657 -1.7121444 -3.4855731
24.988827 -0.45691165 -4.0706959
24.978205 0.75942457 -4.7218828
25.98494 -3.0591714 -5.6197181
25.186277 -1.7138584 -6.0860329
24.918385 -0.4554511 -6.6610198
24.933918 0.7579053 -7.3399301
25.882336 -3.0365398 -8.3699474
25.180662 -1.7046778 -8.8135176
24.925756 -0.46565264 -9.4012337
24.917362 0.76377851 -10.121614
26.489147 -3.2757051 10.838425
25.503099 -1.885756 9.6454248
25.17544 -0.61519128 8.7997389
25.170952 0.61395484 8.0966854
26.396784 -3.2618847 7.8260427
25.476316 -1.8737888 6.8341417
25.171257 -0.61058164 6.0700502
25.153631 0.62565112 5.3971152
26.342108 -3.2476645 5.0099483
25.434828 -1.8772618 4.1656761
25.123417 -0.61153674 3.458281
25.08156 0.60578597 2.8245659
26.257303 -3.2490366 2.3036785
25.379581 -1.8818694 1.5827223
25.073256 -0.61844039 0.94558126
25.05364 0.60943776 0.32089359
26.187136 -3.2296486 -0.3269057
25.358652 -1.8688691 -0.95225257
25.005533 -0.62226063 -1.5531424
25.048668 0.61389571 -2.1810477
26.172153 -3.2493002 -2.9634128
25.348701 -1.8754526 -3.5013227
25.00857 -0.61079377 -4.0744462
24.988239 0.60628873 -4.7229877
26.080605 -3.2327998 -5.6445909
25.280001 -1.8761374 -6.1113462
24.956055 -0.60933828 -6.6719642
24.925978 0.60460538 -7.3363619
26.037184 -3.2167869 -8.4262476
25.236023 -1.8640482 -8.8367319
24.912312 -0.61833429 -9.3974171
24.901329 0.61037761 -10.113389
26.625832 -3.4586082 10.902829
25.587521 -2.0499337 9.6819286
25.213709 -0.77095342 8.8146029
25.164845 0.45932564 8.0936613
26.539293 -3.4449522 7.874413
25.553846 -2.037209 6.8581643
25.143301 -0.76429665 6.0643258
25.13143 0.47082064 5.3916302
26.437611 -3.4242501 5.0320129
25.519724 -2.0410411 4.1815524
25.149441 -0.76660168 3.4624453
25.059301 0.45141754 2.8216939
26.44873 -3.437623 2.3222804
25.46616 -2.0454803 1.5888742
25.083427 -0.77272016 0.94612598
25.0609 0.45577261 0.3209447
26.35792 -3.4150281 -0.32929304
25.436831 -2.03163 -0.95563847
25.051317 -0.77723354 -1.5562532
24.998692 0.45920983 -2.1764097
26.318457 -3.4315679 -2.982306
25.374783 -2.0340056 -3.5065832
25.007408 -0.7643255 -4.074944
24.970634 0.45257431 -4.7190466
26.27746 -3.4210415 -5.6916327
25.332169 -2.0363746 -6.1268635
24.982729 -0.76339793 -6.6802211
24.910652 0.45131466 -7.3308978
26.16959 -3.3962965 -8.4756823
25.328535 -2.0272164 -8.8733149
24.969458 -0.77308303 -9.4205866
24.888252 0.45727396 -10.106748
26.897329 -3.6618354 11.022996
25.717726 -2.2192597 9.736166
25.22682 -0.92631984 8.8210068
25.114363 0.30426836 8.0766726
26.775145 -3.6427608 7.9508739
25.650049 -2.2033448 6.8874812
25.1938 -0.92059255 6.0777531
25.132462 0.31659073 5.3913331
26.688799 -3.6234269 5.0839591
25.594671 -2.2051663 4.1959715
25.149231 -0.92108321 3.4631293
25.082008 0.29789045 2.8239918
26.622814 -3.6264989 2.3394752
25.547928 -2.2098992 1.5947919
25.066284 -0.92617387 0.94567585
25.027325 0.30156067 0.320485
26.533348 -3.6034303 -0.33175468
25.512259 -2.1952732 -0.95896012
25.056952 -0.93133509 -1.5569289
25.014265 0.30597389 -2.1775613
26.518095 -3.6232121 -3.007391
25.468672 -2.198889 -3.5213561
25.007263 -0.91793776 -4.0757618
24.94614 0.29902762 -4.7139816
26.411474 -3.6034279 -5.7253408
25.423492 -2.2007997 -6.1521015
25.00625 -0.91772717 -6.6878905
24.867476 0.29791245 -7.3175163
26.357622 -3.5852847 -8.5435457
25.402834 -2.1901104 -8.9038839
24.994457 -0.92739922 -9.4319868
24.888432 0.30452752 -10.105872
27.125147 -3.8625169 11.125863
25.79678 -2.3856337 9.771452
25.243979 -1.0820909 8.8291626
25.121317 0.15019704 8.0784607
27.045122 -3.8486528 8.0379047
25.705559 -2.3670902 6.9061575
25.223282 -1.0766813 6.0863447
25.077074 0.16200757 5.379137
26.924242 -3.8237848 5.1331816
25.714321 -2.3745134 4.217896
25.169392 -1.0765029 3.4667499
25.08832 0.14401299 2.8245497
26.868439 -3.8280218 2.3630788
25.642399 -2.3766739 1.6015693
25.149672 -1.083819 0.94905484
25.009523 0.1478768 0.32023939
26.801769 -3.8075128 -0.33539665
25.580273 -2.3593318 -0.96204269
25.109602 -1.0876126 -1.5605856
24.967958 0.15219267 -2.173408
26.734035 -3.8199587 -3.0344818
25.547775 -2.3637316 -3.5342317
25.072643 -1.0744253 -4.0874147
24.935247 0.14588365 -4.7116656
26.646248 -3.8021436 -5.7811823
25.514479 -2.3664901 -6.1775165
25.010191 -1.0715756 -6.690577
24.910982 0.14556921 -7.3299174
26.571604 -3.7805905 -8.6202621
25.484041 -2.3547275 -8.9372444
25.038664 -1.0829233 -9.4509983
24.840946 0.15151107 -10.086023
27.404734 -4.0740442 11.250583
25.893208 -2.554882 9.8137302
25.293879 -1.239759 8.8491087
25.137756 -0.0039498075 8.0836029
25.831091 -2.5385838 6.9439368
25.256012 -1.2333724 6.0959539
25.076431 0.0081341192 5.3788872
27.176907 -4.0299373 5.1859689
25.769716 -2.5391903 4.2294583
25.212675 -1.2333829 3.4736888
25.049053 -0.0099130571 2.8200829
27.098642 -4.0306206 2.3854558
25.770979 -2.5481715 1.6105464
25.152781 -1.238618 0.94944108
25.013783 -0.0055823987 0.32028833
27.024275 -4.0084372 -0.33848247
25.710207 -2.5305061 -0.96749514
25.129217 -1.2429856 -1.5622495
24.996992 -0.0010118794 -2.1758947
26.982471 -4.0245504 -3.0654259
25.622133 -2.5292649 -3.5465984
25.136974 -1.2317466 -4.0990577
24.925814 -0.0071160928 -4.7098031
26.896765 -4.0064363 -5.8407583
25.603674 -2.5333087 -6.2027588
25.059565 -1.2277793 -6.7056742
24.906246 -0.0072829626 -7.3283997
26.807543 -3.9821274 -8.7045679
25.544598 -2.5184925 -8.9637318
25.089432 -1.2393967 -9.4728537
24.825897 -0.00091239199 -10.079726
27.894611 -4.3219748 11.462365
25.992626 -2.7258327 9.8575649
25.378229 -1.4000355 8.8814583
25.116165 -0.15805936 8.0768204
27.761232 -4.2987652 8.2657919
25.919287 -2.7079253 6.9719815
25.283279 -1.3902588 6.1044793
25.108551 -0.14592125 5.3858681
27.561674 -4.2599874 5.2642803
25.874542 -2.709924 4.2493119
25.242178 -1.3901294 3.4788632
25.068552 -0.1637418 2.8223379
27.501534 -4.2631865 2.4231789
25.821154 -2.7132177 1.6146922
25.239893 -1.3982023 0.95303524
25.03446 -0.15919867 0.32055956
27.326077 -4.22472 -0.3425808
25.757536 -2.69484 -0.96988016
25.193674 -1.4011874 -1.5667616
24.966772 -0.15420683 -2.1733057
27.284441 -4.2408891 -3.1026301
25.724438 -2.698844 -3.5629847
25.167807 -1.3881044 -4.1053972
24.939302 -0.1601478 -4.7124486
27.146063 -4.2139907 -5.9003987
25.690056 -2.7011299 -6.2275844
25.109842 -1.3847328 -6.7212753
24.919336 -0.16019213 -7.3324022
27.047794 -4.1875973 -8.7907572
25.628767 -2.6856737 -8.9988804
25.140324 -1.396595 -9.4951258
24.870596 -0.15352006 -10.098067
28.691393 -4.6258755 11.801218
26.098412 -2.8989313 9.9042416
25.411161 -1.5583024 8.8961611
25.150576 -0.31261191 8.0926104
26.067633 -2.8852243 7.0130906
25.383356 -1.5520377 6.1308265
25.096148 -0.29984984 5.3835006
28.047352 -4.5114317 5.3640652
26.022913 -2.8869951 4.2708206
25.326582 -1.5507057 3.4884322
25.054861 -0.31740174 2.8209629
25.950331 -2.8878841 1.6238475
25.293261 -1.5568873 0.95539302
25.036633 -0.31284949 0.32060593
27.776634 -4.4690557 -0.351491
25.915939 -2.872277 -0.9737463
25.230413 -1.5585765 -1.569186
24.975422 -0.30752113 -2.1803412
27.746042 -4.4871659 -3.1639142
25.850691 -2.8725584 -3.5873959
25.218716 -1.5461775 -4.115171
24.970627 -0.31358108 -4.7186422
27.592079 -4.4567776 -6.0031743
25.793409 -2.872118 -6.2567925
25.186596 -1.5440331 -6.7442293
24.912188 -0.31301972 -7.3307257
27.378317 -4.4109535 -8.9068079
25.742758 -2.8574138 -9.0448914
25.229176 -1.5568678 -9.5321121
24.900238 -0.30650249 -10.110675
26.290005 -3.0836301 9.9839439
25.442289 -1.7169713 8.9105797
25.164991 -0.46723911 8.0980186
26.197174 -3.0623877 7.0528641
25.399883 -1.7095432 6.1372361
25.113218 -0.45418182 5.3876586
26.164175 -3.0652966 4.2970099
25.380659 -1.7103949 3.4972606
25.096182 -0.47195211 2.8258879
26.136742 -3.071101 1.6366606
25.362852 -1.7174462 0.95840174
25.048716 -0.46673518 0.3207913
28.569778 -4.7766867 -0.36189169
26.031326 -3.0468657 -0.97876579
25.301065 -1.7188398 -1.5742064
25.035845 -0.46191993 -2.1858222
28.423574 -4.7758846 -3.2444546
26.006668 -3.0515482 -3.6115718
25.242086 -1.7031367 -4.1206126
24.957548 -0.46659231 -4.7166224
28.039299 -4.7057266 -6.1066427
25.933943 -3.0489802 -6.2953014
25.20063 -1.7001641 -6.7506537
24.916904 -0.46600506 -7.3328166
25.87196 -3.0325708 -9.0966539
25.254301 -1.7140278 -9.5453987
24.92004 -0.45969036 -10.119671
26.432438 -3.2648759 10.045453
25.499557 -1.8780791 8.9345045
25.202604 -0.62265164 8.1180925
26.373537 -3.2471614 7.1033964
25.473238 -1.8715571 6.1576195
25.116022 -0.60841197 5.3889599
26.316742 -3.246985 4.3203735
25.421904 -1.8699365 3.5168242
25.116312 -0.62651658 2.8285341
26.259218 -3.2489612 1.6455473
25.362537 -1.8738278 0.95880634
25.05962 -0.62077522 0.32097366
26.217546 -3.231854 -0.9864946
25.356638 -1.8789868 -1.5783517
25.042095 -0.61576331 -2.1866567
26.127901 -3.2284188 -3.6310906
25.264917 -1.8604729 -4.1261253
25.017273 -0.62128615 -4.7285414
26.107622 -3.2319272 -6.3421555
25.240965 -1.8585333 -6.7643857
24.946898 -0.61971128 -7.3426247
26.017998 -3.2116451 -9.1547575
25.309284 -1.8738374 -9.5703459
24.902096 -0.61222792 -10.113719
26.591932 -3.4503593 10.113924
25.580601 -2.0419333 8.9671211
25.211521 -0.77768767 8.1223488
26.513445 -3.4296646 7.1466131
25.53146 -2.0334127 6.1745934
25.169716 -0.76426756 5.4013848
26.458229 -3.4293854 4.3469739
25.530956 -2.0355346 3.533572
25.124975 -0.78101915 2.8299963
26.442776 -3.4365339 1.6583403
25.466372 -2.0386851 0.96318638
25.08452 -0.77542847 0.32134748
26.322422 -3.408875 -0.99120909
25.406649 -2.0395153 -1.582214
25.046923 -0.76968604 -2.1874495
26.304216 -3.4141958 -3.6584363
25.345495 -2.0228403 -4.1412339
25.002867 -0.77446401 -4.7266278
26.225922 -3.4100842 -6.3758564
25.354071 -2.0233479 -6.7978969
24.946987 -0.77290601 -7.3439088
26.192984 -3.3965378 -9.2234888
25.333275 -2.0319819 -9.5839529
24.926184 -0.76588273 -10.125219
26.832952 -3.6491847 10.213917
25.683125 -2.2087908 9.0076418
25.20796 -0.93243039 8.1159954
26.732975 -3.6249728 7.2138577
25.639217 -2.2003922 6.2038016
25.177578 -0.91916722 5.404181
26.653572 -3.6211307 4.3875895
25.574629 -2.1970172 3.5289631
25.133755 -0.93569118 2.8315785
26.605347 -3.6238022 1.6698989
25.559895 -2.2040904 0.96721691
25.086847 -0.92960972 0.32144433
26.506174 -3.5981727 -0.99894118
25.538059 -2.2078533 -1.5912113
25.033901 -0.92306793 -2.1867659
26.45619 -3.5991232 -3.682575
25.467945 -2.1899571 -4.1633587
25.028566 -0.92901182 -4.7324748
26.376305 -3.5943511 -6.4176574
25.419191 -2.1855872 -6.8188238
24.986464 -0.92762244 -7.3570671
26.313046 -3.5764091 -9.2733192
25.425997 -2.1965144 -9.6239491
24.939129 -0.91948038 -10.13258
27.077829 -3.8518507 10.315931
25.78545 -2.3770647 9.0484743
25.246187 -1.0890023 8.1303015
27.004293 -3.8306489 7.2932782
25.732006 -2.3674936 6.229651
25.182344 -1.0741006 5.406517
26.931925 -3.8273928 4.4371934
25.645678 -2.3617277 3.5407
25.172651 -1.0918481 2.8366621
26.868937 -3.8277717 1.6878856
25.630085 -2.3686624 0.97040468
25.136009 -1.0859128 0.32215357
26.770042 -3.8014197 -1.0097457
25.564756 -2.368283 -1.5937501
25.101982 -1.0798484 -2.1932504
26.677094 -3.7960343 -3.716496
25.530603 -2.3532422 -4.1758833
25.039547 -1.0833089 -4.7357187
26.643887 -3.7974768 -6.4883103
25.496225 -2.3498955 -6.8432279
25.0128 -1.0823252 -7.3666387
26.523703 -3.7709358 -9.3555384
25.454647 -2.3564279 -9.6400833
24.957352 -1.0735334 -10.142468
25.861259 -2.5441773 9.0803843
25.288349 -1.2463201 8.1461887
25.826155 -2.5360572 6.256094
25.275234 -1.2334745 5.4279828
27.158949 -4.0298176 4.4785862
25.755405 -2.5312982 3.5579267
25.216713 -1.2488215 2.8424373
25.759317 -2.5401056 0.97586948
25.207298 -1.2439944 0.32315901
27.031277 -4.0078716 -1.0205076
25.698515 -2.539804 -1.6030302
25.117054 -1.234941 -2.1951878
26.939056 -4.0021029 -3.7563415
25.602938 -2.5184336 -4.1901631
25.063007 -1.2384392 -4.7415037
26.836893 -3.9931493 -6.5411549
25.583464 -2.5163391 -6.8706579
25.062878 -1.2386067 -7.3834858
26.896158 -3.9924064 -9.4953747
25.531553 -2.5216417 -9.6748877
24.998678 -1.2290274 -10.162137
27.834253 -4.308569 10.623453
25.966789 -2.7155304 9.1231174
25.354973 -1.4056067 8.1702738
27.662359 -4.2709188 7.4846005
25.903152 -2.7041891 6.2786469
25.303637 -1.39054 5.435812
27.566034 -4.263247 4.5499439
25.846703 -2.700495 3.5727606
25.267309 -1.4067948 2.8490598
27.431616 -4.2520194 1.7263808
25.799459 -2.7040052 0.97800034
25.232996 -1.4005164 0.32359251
27.289248 -4.2174044 -1.0312043
25.79874 -2.7096536 -1.6102889
25.214954 -1.3948942 -2.2044508
27.204601 -4.2123203 -3.796901
25.720816 -2.6894751 -4.2120771
25.13694 -1.3967563 -4.7570224
27.114431 -4.204658 -6.6149654
25.702414 -2.6873708 -6.9069014
25.116667 -1.3958043 -7.4017167
27.173321 -4.2041125 -9.60215
25.6586 -2.6932628 -9.7291098
25.076576 -1.3871456 -10.197071
28.58341 -4.6042953 10.91996
26.082224 -2.8894968 9.1697302
25.382162 -1.563391 8.1819725
28.149376 -4.5231209 7.6237383
26.038048 -2.8798857 6.3155088
25.385155 -1.5513061 5.455266
28.022446 -4.5100594 4.6297584
25.989471 -2.8767269 3.5948675
25.338188 -1.5667516 2.8580823
27.910145 -4.5017309 1.7582018
25.9303 -2.8786781 0.98361129
25.276539 -1.5585608 0.32426745
25.89183 -2.8801599 -1.6171721
25.262794 -1.5530806 -2.2094247
27.643614 -4.4541492 -3.8619153
25.838125 -2.8621206 -4.2340837
25.235279 -1.5575954 -4.7773509
27.516426 -4.4400616 -6.7195582
25.742661 -2.8513651 -6.9222879
25.144293 -1.5521541 -7.4125242
27.39863 -4.4112763 -9.6911488
25.715338 -2.8588488 -9.7570906
25.110025 -1.5435948 -10.214333
26.256639 -3.0720184 9.2375031
25.473171 -1.7259521 8.2145691
26.193295 -3.0598552 6.3575978
25.384949 -1.707696 5.4573712
26.131475 -3.054863 3.6170344
25.384224 -1.7260107 2.8644156
26.091364 -3.0587389 0.9904142
25.322548 -1.7174268 0.32498679
26.03335 -3.0577295 -1.6271523
25.299259 -1.7112039 -2.2134905
28.228207 -4.7262239 -3.9475622
26.005583 -3.0423079 -4.264504
25.265524 -1.7151412 -4.7849793
28.006207 -4.6955876 -6.8460703
25.902985 -3.0301235 -6.9702682
25.216595 -1.7119949 -7.4367957
27.820631 -4.6545258 -9.8503313
25.8507 -3.0345876 -9.8153315
25.149832 -1.7010028 -10.234577
26.413101 -3.2547319 9.2993994
25.506536 -1.8855048 8.2289047
26.330502 -3.2397699 6.3956051
25.413153 -1.8662986 5.4657931
26.287682 -3.2367468 3.6413362
25.430187 -1.8859624 2.8708539
26.239021 -3.239382 0.99675494
25.389183 -1.8785157 0.32598373
26.223156 -3.2432659 -1.6402289
25.301939 -1.8674132 -2.2146862
26.144718 -3.2213213 -4.2904801
25.282986 -1.8722426 -4.7903719
26.064419 -3.2112441 -7.0188785
25.2535 -1.8702348 -7.4509234
28.813999 -5.0026598 -10.212725
26.040775 -3.2190051 -9.8948145
25.226297 -1.8617356 -10.27015
26.565907 -3.4391699 9.3604517
25.56571 -2.0476789 8.251894
26.515223 -3.4277835 6.4454608
25.523935 -2.031965 5.4921985
26.429432 -3.4189544 3.6638081
25.508492 -2.049222 2.8810594
26.375118 -3.4206133 1.0027034
25.459528 -2.0408666 0.32704157
26.342575 -3.4222708 -1.6489807
25.377985 -2.0296643 -2.2223907
26.246044 -3.3974202 -4.3104482
25.360094 -2.0344865 -4.8072562
26.157465 -3.3857696 -7.0493975
25.278534 -2.0281196 -7.4618411
26.147228 -3.395179 -9.9429941
25.255661 -2.0197861 -10.286958
26.797882 -3.6365216 9.449873
25.655474 -2.2133784 8.2850943
26.725288 -3.6217995 6.5018044
25.606085 -2.196697 5.5126724
26.629042 -3.6110382 3.6944814
25.58894 -2.2137899 2.8916252
26.55365 -3.6095729 1.0103136
25.57585 -2.2082107 0.32870364
26.501539 -3.6084123 -1.6602862
25.486965 -2.1958456 -2.2330718
26.408636 -3.5833569 -4.3406806
25.430794 -2.1972835 -4.823123
26.341269 -3.5740297 -7.1047082
25.39522 -2.194387 -7.5001183
26.270847 -3.5752769 -9.9981556
25.338707 -2.1829774 -10.326044
27.062328 -3.8416603 9.5512581
25.764336 -2.3821216 8.3248138
26.980867 -3.8251708 6.5695696
25.735376 -2.3669467 5.543529
26.905891 -3.8168514 3.7360702
25.663145 -2.378942 2.9016056
26.85878 -3.8190413 1.0227956
25.600998 -2.3687248 0.32920748
26.731886 -3.8069835 -1.676149
25.577587 -2.3618457 -2.2422395
26.628815 -3.7797737 -4.3806
25.541246 -2.3648016 -4.8467317
26.581104 -3.772814 -7.1755052
25.500692 -2.3612249 -7.5354052
26.533489 -3.7769845 -10.106742
25.419462 -2.3471491 -10.364628
27.343098 -4.052825 9.658946
25.854275 -2.5505259 8.3587732
27.22311 -4.0300612 6.6344485
25.794878 -2.5321257 5.5595884
27.143093 -4.0205503 3.7723618
25.778139 -2.549226 2.916321
27.064163 -4.0178161 1.031536
25.726921 -2.5396781 0.33102089
25.672325 -2.5295525 -2.2518628
25.635765 -2.5322924 -4.8675246
26.843502 -3.9782333 -7.2527914
25.581247 -2.5270863 -7.5636492
26.751524 -3.975641 -10.198893
25.529306 -2.5153644 -10.415513
27.762865 -4.2892971 9.8163414
25.975943 -2.7235653 8.4033537
27.60482 -4.2598219 6.7337174
25.92907 -2.7060294 5.5919843
27.495956 -4.2453914 3.8249514
25.855112 -2.717134 2.9268603
27.401003 -4.2398162 1.0453464
25.818863 -2.7088196 0.3324115
25.761576 -2.698051 -2.2611012
27.167469 -4.1969543 -4.4773483
25.72467 -2.7005582 -4.8874598
27.065365 -4.1809893 -7.3195305
25.670536 -2.695055 -7.5947957
26.983015 -4.1794224 -10.29673
25.619375 -2.6830616 -10.458779
26.081367 -2.896518 8.4277124
28.080978 -4.5098748 6.8564887
26.021688 -2.8772068 5.6156602
27.984303 -4.4967642 3.9003465
25.963989 -2.8897543 2.9411373
25.94145 -2.8827133 0.3342112
27.748217 -4.4742942 -1.7447445
25.884109 -2.8715546 -2.2733598
25.804792 -2.8691556 -4.8987908
27.452478 -4.4134212 -7.4364176
25.778856 -2.8664527 -7.6393814
27.384552 -4.4138436 -10.46587
25.696804 -2.850678 -10.498268
26.25214 -3.0786643 8.4888382
26.173918 -3.0567155 5.6524534
26.144379 -3.0723517 2.9636509
26.100311 -3.0626066 0.33649364
26.001404 -3.0461853 -2.28526
28.090662 -4.6945505 -4.650084
25.975872 -3.0496459 -4.9347272
27.944944 -4.6686687 -7.577436
25.904324 -3.0414281 -7.6819487
27.782295 -4.6530261 -10.628592
25.82147 -3.0250072 -10.556583
26.396376 -3.2598934 8.5387182
26.338339 -3.2398515 5.6921477
26.287592 -3.2528274 2.9820917
26.250317 -3.2436154 0.33867776
26.139271 -3.2250459 -2.2990732
26.112036 -3.2281811 -4.9642649
26.052132 -3.2209585 -7.7314968
25.989294 -3.2064433 -10.633039
26.549683 -3.444345 8.594985
26.4713 -3.4212172 5.7253122
26.403856 -3.4318337 2.9976132
26.372122 -3.4230807 0.34051386
26.327497 -3.4123979 -2.3174267
26.263758 -3.4106801 -4.9969935
26.210951 -3.404007 -7.7846813
26.143009 -3.3883865 -10.704233
26.786688 -3.6423547 8.6819
26.680269 -3.6148012 5.775197
26.673126 -3.6333961 3.0306573
26.570982 -3.6148114 0.34336144
26.460712 -3.5948863 -2.3310504
26.412476 -3.5949242 -5.0293913
26.345245 -3.5859597 -7.830955
26.288376 -3.5713735 -10.772523
27.039528 -3.8458588 8.7713327
26.943724 -3.8190119 5.8371873
26.90901 -3.8338463 3.0600741
26.805277 -3.814347 0.34668502
26.738535 -3.799866 -2.3575346
26.625561 -3.7904665 -5.0742993
26.572958 -3.7831657 -7.9053922
26.494648 -3.765106 -10.866313
27.305353 -4.0547514 8.8654671
27.369877 -4.0508795 5.9347839
27.126532 -4.0348129 3.087568
27.014324 -4.0133581 0.34970066
26.923323 -3.9948115 -2.3759439
26.906736 -3.9990883 -5.1324658
26.846699 -3.9903555 -7.9939637
26.736145 -3.9669366 -10.975135
27.760187 -4.2965446 9.0215321
27.830341 -4.2936969 6.0402284
27.525038 -4.2668748 3.1358471
27.410032 -4.2442036 0.35515353
27.263456 -4.2164073 -2.4081979
27.124279 -4.2016873 -5.1787825
27.075237 -4.194283 -8.0695248
26.981539 -4.1727042 -11.086171
28.08321 -4.5092974 6.1010008
27.674582 -4.4540272 -2.4468811
27.487974 -4.4310989 -8.2004862
28.705158 -4.8061581 0.37267074
28.34383 -4.7403374 -2.5085778
27.779251 -4.6458082 -11.4365
28.594259 -4.9626575 -11.784347
16.682224 46.648918 14.591851
16.886093 46.32061 14.521294
17.060938 45.922581 14.42906
17.508066 46.254726 14.566901
16.786509 43.493942 18.93948
16.954632 43.13966 18.830154
17.155209 42.875347 18.76038
16.767471 44.26395 17.850586
16.9519 43.935146 17.7596
17.119246 43.570908 17.654495
16.772339 45.099926 16.799994
16.942205 44.714958 16.695004
17.131504 44.390568 16.61282
16.733957 45.849174 15.689073
16.913988 45.474144 15.59596
17.104675 45.137238 15.516117
17.624748 45.662125 15.73343
28.85783 5.0012131 -9.4067678
28.861889 4.8140855 2.5530689
28.066803 4.669744 -3.1970801
27.886528 4.4757051 2.4643142
27.624521 4.4221392 -3.1435502
27.386972 4.4008398 -8.9090376
27.851435 4.2970729 11.446615
27.30324 4.2216663 -0.34229541
27.145308 4.1747618 -3.0860445
27.113029 4.1751938 -5.8921137
27.020636 4.1720605 -8.781374
27.254784 4.0364714 8.1085749
27.171137 4.0318184 5.1823759
27.083435 4.0065393 2.3888204
27.027058 4.0093207 -0.3385182
26.93391 3.9732349 -3.0591824
26.844955 3.9654448 -5.8284588
26.794821 3.9690211 -8.6999092
27.079302 3.8383465 11.10908
27.008865 3.8308425 8.0282669
26.963533 3.8320756 5.1381979
26.818697 3.7993677 2.3633695
26.74856 3.8004189 -0.33473161
26.680037 3.7686639 -3.0276635
26.603308 3.7631006 -5.7708716
26.547968 3.7661343 -8.612093
26.853142 3.6383545 11.003933
26.741873 3.62573 7.9404993
26.690853 3.6263843 5.085103
26.589815 3.6006567 2.3363254
26.53406 3.6039875 -0.33454779
26.428473 3.5678718 -3.0020046
26.392458 3.5682342 -5.7202759
26.319736 3.5691521 -8.5307913
26.592402 3.4369979 10.888239
26.514874 3.4294043 7.8666992
26.46484 3.4304285 5.0379386
26.409597 3.4113688 2.3186076
26.400171 3.4209595 -0.33258879
26.261147 3.3813429 -2.9805851
26.244207 3.3843486 -5.683537
26.189363 3.3879559 -8.481637
26.4501 3.2537274 10.821595
26.363508 3.2454848 7.8157353
26.322006 3.2478194 5.0068603
26.249193 3.2270262 2.3027432
26.178875 3.2290828 -0.32954508
26.116663 3.1999598 -2.9619021
26.082327 3.2008996 -5.6441197
26.039274 3.2062175 -8.4264984
26.277708 3.0689642 10.743157
26.228794 3.0656452 7.7700748
26.150774 3.0639105 4.9706192
26.086409 3.0446513 2.2867808
26.049368 3.0509605 -0.32767299
28.51438 4.7696257 -1.0796524
25.990164 3.0227122 -2.9453969
28.126535 4.6964498 -3.933054
25.915701 3.0191584 -5.6039476
25.89032 3.026727 -8.3721285
27.80941 4.6469536 -9.8460302
26.139465 2.8903563 10.679189
28.524124 4.5843959 10.89669
26.082714 2.8864574 7.7214074
28.237665 4.5496507 7.6498508
26.039129 2.8889768 4.9459362
25.959604 2.8685086 2.2740791
25.913012 2.8739226 -0.32572985
27.777657 4.4713602 -1.0506989
25.847195 2.8454554 -2.9271607
27.589621 4.4329667 -3.8540988
25.772638 2.842319 -5.5691361
27.460079 4.4057612 -6.7048326
25.747231 2.8499696 -8.3200455
27.392435 4.4046807 -9.6886473
26.022966 2.7159545 10.624584
27.855148 4.3017168 10.630847
25.928667 2.7084725 7.6707401
25.888052 2.7115202 4.9139872
27.554472 4.2590847 4.5478783
25.814772 2.6922801 2.259902
27.408543 4.2318048 1.726126
25.810923 2.7023852 -0.32423201
27.308308 4.2240729 -1.0319458
25.698977 2.6696463 -2.9084654
27.173199 4.1951871 -3.7922597
25.68276 2.6730087 -5.5460668
27.122202 4.1810136 -6.6159458
25.676161 2.6827314 -8.291605
27.139217 4.1933007 -9.5898027
25.916826 2.5442221 10.574677
27.324909 4.0483294 10.418806
25.854687 2.5404716 7.6440983
27.243286 4.0470924 7.3664541
25.846806 2.5469673 4.9030991
25.763674 2.5272479 2.2540288
27.065311 4.0089402 1.7029288
25.693316 2.530792 -0.32255352
26.998938 4.0067511 -1.0193069
25.650925 2.5056634 -2.9012327
26.937479 3.989727 -3.7558758
25.609436 2.5066371 -5.5268068
26.828545 3.9673717 -6.5382519
25.568396 2.5129733 -8.2516699
26.901083 3.9876604 -9.4968319
25.809843 2.3739204 10.524884
27.07431 3.8415816 10.314073
25.760935 2.3717604 7.6119337
27.008286 3.8429558 7.2963977
25.69927 2.3733032 4.8722577
26.915436 3.8227391 4.4343281
25.666592 2.3588145 2.2442267
26.788849 3.8001602 1.6840352
25.618465 2.364795 -0.32142562
25.552635 2.3378699 -2.8884387
26.705154 3.7880118 -3.7201722
25.493763 2.3374813 -5.4986444
26.593561 3.7660275 -6.4752321
25.46306 2.3449652 -8.2128773
25.713234 2.2060134 10.479772
26.81847 3.6375549 10.207913
25.632868 2.2014427 7.5699582
26.750769 3.6389945 7.2206602
25.644386 2.2096288 4.8591909
26.668245 3.6208394 4.3898606
25.581064 2.1927524 2.2355299
26.566547 3.6024771 1.6686397
25.532717 2.1989653 -0.32017443
26.543344 3.6068182 -1.0003601
25.462843 2.1721952 -2.8767281
26.433832 3.5842087 -3.6792426
25.455147 2.1765234 -5.4873319
26.359224 3.5680017 -6.4127221
25.40517 2.1825142 -8.1897306
26.316217 3.5715013 -9.2741871
25.609224 2.0388784 10.432084
26.581987 3.4395096 10.109677
25.580482 2.0389073 7.5506501
26.543179 3.4450107 7.1587863
25.534464 2.0423977 4.8358965
26.462055 3.4276173 4.3523755
25.488432 2.0273492 2.2263057
26.383858 3.4129734 1.6558183
25.433924 2.03332 -0.31877318
26.316023 3.4116094 -0.99098527
25.390724 2.0091934 -2.8671334
26.268824 3.3978219 -3.6533048
25.333408 2.009614 -5.4583278
26.218624 3.3852808 -6.373343
25.292236 2.016556 -8.1491833
26.13817 3.3841357 -9.2039499
25.536388 1.8754719 10.397531
26.434416 3.2556288 10.045767
25.448051 1.8712873 7.5080299
26.376976 3.2589951 7.1084337
25.451147 1.8786434 4.8178434
26.285666 3.240905 4.3200116
25.399761 1.8635335 2.21752
26.249561 3.2319682 1.6461146
25.328598 1.8685668 -0.31730339
26.213617 3.2349131 -0.98636293
25.298149 1.8457425 -2.8553472
26.099039 3.2131672 -3.6268821
25.291018 1.8501651 -5.4466457
26.077234 3.2044761 -6.334075
25.229721 1.8558543 -8.1252184
26.020288 3.2066655 -9.1553392
25.480373 1.7142384 10.370247
26.239038 3.0682449 9.9641762
25.441221 1.7139045 7.5027709
26.209299 3.0751262 7.0580277
25.410273 1.7189301 4.8080187
26.151924 3.0616307 4.2948627
25.352386 1.7037286 2.2124298
26.125084 3.0540311 1.6371025
28.713711 4.7975597 1.09755
25.343924 1.7134113 -0.31735769
26.041357 3.0515549 -0.97915822
25.298588 1.6897856 -2.8541725
25.994564 3.0385065 -3.6097047
28.148809 4.7101717 -4.6596313
25.232067 1.6902699 -5.4316144
25.923122 3.0241935 -6.2920156
27.961533 4.6790338 -7.577157
25.181946 1.6970576 -8.1063261
25.857002 3.0255959 -9.0911827
25.425989 1.553924 10.344036
26.111555 2.8910429 9.9088421
25.382456 1.5535567 7.4824886
26.082283 2.8980961 7.0189018
28.164375 4.5401049 6.8691444
25.352972 1.5588413 4.7952766
26.00989 2.8833346 4.2685513
27.976269 4.5073667 3.8956821
25.334915 1.5464617 2.2100356
25.931839 2.8702641 1.6238588
27.805431 4.4706049 1.0617635
25.274515 1.5529902 -0.3163633
25.90687 2.8747642 -0.97341985
27.68955 4.4457397 -1.7408674
25.213825 1.5287855 -2.843498
25.853456 2.8613231 -3.5876043
27.613749 4.4466362 -4.5664573
25.216022 1.5338391 -5.4260321
25.790663 2.8484502 -6.2555046
27.499733 4.4284716 -7.4445128
25.137587 1.5391876 -8.0888538
25.701424 2.8476429 -9.0301685
27.327053 4.3893452 -10.43722
25.400574 1.3959893 10.330018
26.024799 2.7199013 9.869401
27.810991 4.303133 9.8337002
25.32217 1.3939664 7.4620552
25.944628 2.7217488 6.9772329
27.677437 4.2875414 6.7438393
25.275076 1.3984363 4.7788305
25.845535 2.7046874 4.2387753
27.561975 4.2672796 3.8342741
25.265614 1.3866824 2.2032063
25.827505 2.6984055 1.6162581
27.391506 4.2318039 1.0449464
25.192719 1.3928565 -0.31522653
25.746122 2.6971118 -0.96673995
27.234531 4.2014332 -1.7106069
25.156269 1.370427 -2.8360054
25.707285 2.6855822 -3.5649669
27.192396 4.2077751 -4.492424
25.144249 1.3746752 -5.4086709
25.688644 2.6777427 -6.2266579
27.073616 4.1895876 -7.3220606
25.086203 1.381593 -8.0694389
25.601389 2.6776485 -8.9890795
26.983971 4.1645598 -10.29623
25.327871 1.2361649 10.297173
25.885429 2.5448706 9.810441
27.356764 4.0611348 9.6640959
25.276203 1.2359238 7.4461341
25.841238 2.5506988 6.9450889
27.198574 4.0426264 6.6209917
25.25845 1.2421087 4.7741556
25.816843 2.5416403 4.231432
27.150036 4.0330768 3.7734532
25.215769 1.2288089 2.1981609
25.733437 2.5290558 1.60937
27.074064 4.0128303 1.0318778
25.193922 1.2379131 -0.3151406
25.699209 2.5328786 -0.96437663
26.97278 3.9917698 -1.692596
25.0987 1.2128798 -2.8286228
25.639227 2.5195351 -3.553318
26.932487 3.9985023 -4.4453483
25.085819 1.2171456 -5.3943949
25.583086 2.5081573 -6.1972251
26.855785 3.9873049 -7.2563944
25.041283 1.225052 -8.0524206
25.516014 2.5105422 -8.9535255
26.727802 3.9572749 -10.189028
25.290867 1.078851 10.279243
25.81389 2.3780091 9.7776146
27.043375 3.8451715 9.5448732
25.237297 1.0788417 7.4325833
25.746233 2.3818998 6.9154968
26.977102 3.8406744 6.5612183
25.227343 1.0854565 4.7669272
25.675112 2.3687136 4.2057409
26.915985 3.8296621 3.7375875
25.155712 1.0712063 2.1923113
25.646004 2.361675 1.6029656
26.816675 3.8066716 1.0211583
25.160868 1.0815759 -0.3146382
25.594788 2.3641081 -0.95989579
26.752871 3.7916257 -1.6773046
25.080414 1.057789 -2.8257775
25.564837 2.3539395 -3.5409396
26.665495 3.79179 -4.3973565
25.024044 1.0602851 -5.3796101
25.539425 2.3457561 -6.1830459
26.617502 3.7851536 -7.1856003
24.966614 1.0678834 -8.0261517
25.455242 2.3469522 -8.9269791
26.493937 3.7566698 -10.090898
25.219929 0.92083442 10.247922
25.719351 2.2102365 9.7364836
26.834358 3.6476142 9.4630241
25.243065 0.92395437 7.4324718
25.636709 2.2132039 6.8841519
26.740301 3.6397033 6.5059714
25.169455 0.92828101 4.7541828
25.638901 2.2068033 4.2031918
26.650826 3.6252396 3.7012196
25.10589 0.91479605 2.187439
25.52079 2.1878734 1.5929929
26.601513 3.6097579 1.0121026
25.053188 0.92297739 -0.31321499
25.528059 2.2000573 -0.95686889
26.502216 3.5903611 -1.660177
25.022369 0.90157026 -2.8185613
25.465422 2.187294 -3.523273
26.400692 3.5877633 -4.3539538
24.989613 0.9052546 -5.3725071
25.397522 2.1756568 -6.1494646
26.380959 3.5865128 -7.1190634
24.981552 0.91499537 -8.0380087
25.353222 2.1807449 -8.8909893
26.286398 3.562849 -10.01233
25.225204 0.76607347 10.247962
25.628988 2.0441334 9.6973448
26.591665 3.4485819 9.3698006
25.180721 0.76699138 7.412591
25.574553 2.0498269 6.8639545
26.503284 3.4419429 6.4430451
25.1614 0.77341843 4.7516756
25.498367 2.0371733 4.1780248
26.463104 3.4344602 3.6721532
25.134483 0.76144248 2.1894817
25.448822 2.0244849 1.5876955
26.367336 3.4133496 1.0023773
25.048153 0.76892257 -0.31308711
25.449162 2.0360253 -0.95342541
26.322874 3.4017203 -1.647604
25.037045 0.74830621 -2.8196437
25.347574 2.0205743 -3.5051868
26.263395 3.4051137 -4.3277841
24.973495 0.75126642 -5.36795
25.313896 2.0121093 -6.1261115
26.219427 3.4008331 -7.0697083
24.969479 0.76116931 -8.0324707
25.292925 2.0192957 -8.8653326
26.139643 3.3797541 -9.9483461
25.210133 0.6108126 10.240124
25.527401 1.8784758 9.6543646
26.396151 3.2586665 9.2936888
25.154564 0.61173189 7.403646
25.495764 1.8861423 6.8395739
26.37484 3.2608283 6.4068356
25.11095 0.61767048 4.7413435
25.435823 1.875183 4.1658134
26.305374 3.2499919 3.6474297
25.06447 0.60541326 2.1830182
25.40049 1.8638726 1.5839367
26.23004 3.2320609 0.9963851
25.046368 0.61506748 -0.31301174
25.358877 1.8722808 -0.94959468
26.184042 3.2205598 -1.6376464
25.016674 0.59408623 -2.8168864
25.287565 1.8597167 -3.495245
26.120316 3.2237244 -4.3008661
24.985514 0.59820646 -5.3696437
25.256523 1.8516718 -6.1093626
26.094223 3.221915 -7.0304856
28.893105 5.0047264 -8.6411896
24.965284 0.60774088 -8.0297709
25.230118 1.8585589 -8.8391552
25.996822 3.1992333 -9.8863344
25.20863 0.45602825 10.238184
25.477304 1.717685 9.6312504
26.285492 3.0813832 9.2478971
25.140005 0.45705056 7.398396
25.438786 1.7250515 6.8213205
26.204399 3.0766315 6.3607273
25.079527 0.46293965 4.7347846
25.391232 1.7153189 4.1567078
26.192024 3.0729437 3.6290302
25.059025 0.45145264 2.1822617
25.343657 1.7034265 1.5797111
26.072767 3.0503929 0.98968124
28.611832 4.7774043 0.37143138
25.026306 0.46094385 -0.31271979
25.322832 1.7134625 -0.94783342
26.036892 3.0404038 -1.6272458
24.988312 0.44002026 -2.8133359
25.261829 1.7020493 -3.4901783
25.946224 3.0407293 -4.2690487
28.010445 4.6751952 -5.3602695
24.961235 0.44439772 -5.363739
25.22323 1.6936994 -6.0986805
25.918676 3.0389004 -6.9780335
27.909914 4.658217 -8.3384371
24.931675 0.45387411 -8.0179138
25.158443 1.6981391 -8.8102283
25.851015 3.0203872 -9.8236513
27.765265 4.6413713 -11.43372
25.196444 0.30116895 10.23229
25.384413 1.5550201 9.5923471
26.133652 2.9011407 9.1880398
25.108156 0.30237409 7.3883386
25.389891 1.5652922 6.8055062
26.064802 2.8982201 6.3224068
28.125933 4.5348611 6.1109195
25.087317 0.30911264 4.7358079
25.298134 1.5531567 4.1398296
26.019936 2.8910143 3.6026609
27.92462 4.4817576 3.1840537
25.039221 0.29742232 2.180337
25.26347 1.5423843 1.5740935
25.92754 2.8722484 0.98348111
27.777483 4.4630752 0.36023778
25.015162 0.30721086 -0.31255108
25.260723 1.553615 -0.9451341
25.883654 2.8616371 -1.6165409
27.665495 4.4502668 -2.4460456
24.985065 0.28662378 -2.8127193
25.209103 1.5431756 -3.4815197
25.834988 2.8671079 -4.2477717
27.557196 4.42592 -5.2682366
24.955391 0.29113561 -5.3619986
25.156244 1.5342104 -6.0800934
25.777285 2.8620939 -6.9351082
27.420502 4.4037709 -8.1839914
24.921537 0.30073738 -8.0139093
25.141773 1.5421053 -8.8009109
25.723635 2.845624 -9.7684259
27.300192 4.3916092 -11.230895
25.164095 0.14636469 10.218597
25.388134 1.3989406 9.5903292
25.96389 2.7211273 9.1223135
25.091038 0.1481984 7.3828955
25.314611 1.4047893 6.7828898
25.895514 2.7186465 6.2771778
25.05966 0.1549941 4.7303185
25.291983 1.3970611 4.1373425
25.842936 2.7109277 3.5757835
27.459026 4.234374 3.1279438
25.075912 0.14398184 2.183414
25.235949 1.3853372 1.5718195
25.808117 2.6988258 0.97830468
24.999569 0.15361042 -0.31233865
25.190012 1.3941739 -0.94215053
25.757889 2.6878591 -1.607626
27.25326 4.2125711 -2.4072673
24.993317 0.13335004 -2.8135033
25.17383 1.3860291 -3.4754086
25.715454 2.6942177 -4.2253203
27.108261 4.1833577 -5.1774068
24.931309 0.13786624 -5.3565412
25.111858 1.3769019 -6.0672097
25.681456 2.6920383 -6.9047523
24.898874 0.14767347 -8.0061798
25.076151 1.3836923 -8.7748022
25.603956 2.6734641 -9.7165661
26.966871 4.168407 -11.083041
25.169973 -0.0080438033 10.220813
25.333462 1.2400626 9.5666227
25.859289 2.5498524 9.0798931
27.291334 4.0439038 8.871954
25.137209 -0.0057706106 7.3963513
25.287601 1.2477009 6.7734742
25.818689 2.5505145 6.2546449
27.400078 4.0735011 5.9419041
25.055069 0.0012277527 4.7293615
25.236353 1.2387179 4.1269207
25.748585 2.5414011 3.5605037
27.096598 4.0084276 3.0837984
25.037027 -0.0098682912 2.1799924
25.195526 1.2281048 1.5688028
25.725483 2.5307093 0.97456533
27.050079 4.0063305 0.3501403
24.996008 0.00021301888 -0.31228825
25.162922 1.2378546 -0.94083554
25.665943 2.5191655 -1.6008925
26.965115 3.9987814 -2.3796034
24.946188 -0.019970583 -2.8081586
25.115726 1.2283051 -3.4662812
25.644348 2.5277891 -4.2110095
26.900356 3.9824424 -5.132936
24.91222 -0.015100181 -5.3523588
25.057575 1.219762 -6.0521722
25.587187 2.523531 -6.8751144
26.802896 3.9678242 -7.9845243
24.893694 -0.0051047858 -8.0043736
25.059019 1.2285687 -8.7660046
25.528589 2.507345 -9.6819448
26.695059 3.9588354 -10.96114
25.18379 -0.16257629 10.226635
25.272572 1.0816847 9.5409422
25.795322 2.3838222 9.0521269
27.016886 3.8339767 8.7749233
25.123699 -0.15992677 7.3925261
25.201323 1.0884789 6.7484474
25.725952 2.382055 6.2285209
25.074667 -0.15262941 4.7331486
25.195688 1.0817955 4.1191077
25.685637 2.376142 3.5497162
26.817631 3.7991581 3.0493395
25.059055 -0.16363974 2.1819568
25.140354 1.0708342 1.564929
25.658852 2.365284 0.97147292
26.773621 3.7976511 0.34625363
25.00996 -0.15324798 -0.31246841
25.116196 1.0811166 -0.93882275
25.583616 2.3526869 -1.5948271
26.727974 3.7961578 -2.3565762
24.998137 -0.17340161 -2.8140733
25.059401 1.0714643 -3.457535
25.544273 2.3597577 -4.1921196
26.605043 3.772048 -5.0720739
24.956795 -0.16826272 -5.3620567
25.040878 1.0649803 -6.0464468
25.493761 2.3564608 -6.8459973
26.579142 3.7681875 -7.9108319
24.894711 -0.15785915 -8.0048609
24.996796 1.0718154 -8.7417727
25.42696 2.3399332 -9.6377745
26.484123 3.7616243 -10.864846
25.161448 -0.31683525 10.21816
25.225531 0.92464465 9.5208626
25.703547 2.2163672 9.0149784
26.816437 3.6378176 8.702405
25.085138 -0.31361595 7.3816071
25.182219 0.93288851 6.7416716
25.655857 2.2168808 6.2081394
26.739119 3.6404417 5.7884459
25.119789 -0.30705059 4.7419324
25.140711 0.92492795 4.1091146
25.57847 2.2080252 3.5329673
25.05888 -0.31741261 2.18207
25.113111 0.91534036 1.5628542
25.502682 2.1931629 0.96503252
26.573824 3.6031182 0.34337732
24.998652 -0.30658194 -0.31234476
25.071587 0.9251129 -0.93692553
25.501959 2.187463 -1.5888699
26.512037 3.5996735 -2.3355463
25.002953 -0.32686704 -2.8147881
25.038239 0.91668445 -3.4537742
25.480915 2.1963089 -4.1794314
26.368832 3.5736504 -5.0227675
24.955502 -0.32139426 -5.362102
25.020775 0.91036022 -6.0401306
25.408409 2.1914227 -6.8193383
26.360653 3.5723557 -7.8391304
24.881382 -0.31045887 -8.0010376
24.960114 0.91684604 -8.7268124
25.373819 2.1781194 -9.6123857
26.27165 3.5671346 -10.768499
25.203308 -0.47204635 10.236143
25.224396 0.7696529 9.5184717
25.587816 2.0482974 8.9698114
26.534384 3.433882 8.6038742
25.16256 -0.46901739 7.4050965
25.201582 0.7787919 6.7454495
25.58029 2.0523024 6.1866908
26.49929 3.4423144 5.7318478
25.123173 -0.46128234 4.7430158
25.12825 0.77010864 4.1062284
25.535341 2.0465333 3.5252094
26.434038 3.4144688 3.0007317
25.062904 -0.47128621 2.1826313
25.076447 0.75996494 1.5602528
25.461882 2.0323477 0.96299863
26.378647 3.4119565 0.34057841
25.055435 -0.46105322 -0.31308368
25.070282 0.7710588 -0.93668228
25.415548 2.0230367 -1.582683
26.343422 3.4122932 -2.318804
24.968174 -0.47965559 -2.8111515
24.992191 0.76147538 -3.446713
25.354961 2.0288012 -4.1566525
26.242029 3.3926227 -4.9945545
24.977365 -0.47497454 -5.3673248
24.972769 0.75521195 -6.0273089
25.306063 2.0262454 -6.7884049
26.196249 3.3865197 -7.7839136
24.923174 -0.46394446 -8.0152407
24.942734 0.76298702 -8.718935
25.372532 2.0212584 -9.6070185
26.117626 3.3831451 -10.696656
25.18655 -0.62634915 10.230704
25.205393 0.61429781 9.5096998
25.49423 1.8834484 8.932786
26.378206 3.249234 8.546608
25.178215 -0.62387407 7.4106908
25.154236 0.62286425 6.731627
25.453999 1.8850561 6.1532331
26.325636 3.2556272 5.689858
25.11972 -0.6154229 4.7429876
25.150885 0.61636066 4.1092319
25.447474 1.8824199 3.5114183
26.25205 3.2273211 2.9777689
25.06901 -0.62529659 2.1834559
25.071573 0.60586542 1.559689
25.364079 1.8679922 0.958848
26.202929 3.2258866 0.33804777
25.093822 -0.61580479 -0.31360468
25.032913 0.61619121 -0.93512726
25.321949 1.8593028 -1.5761143
26.17116 3.2268291 -2.3018548
25.014326 -0.63410485 -2.8167326
25.00845 0.60840511 -3.4483757
25.298817 1.868158 -4.1454906
26.10429 3.2120914 -4.9644942
24.995644 -0.6287688 -5.3719807
24.981627 0.60208082 -6.0284419
25.280334 1.8681471 -6.7783008
26.056452 3.206022 -7.7363844
24.95606 -0.61775756 -8.0268841
24.90122 0.60880893 -8.7029533
25.30887 1.8599823 -9.5784121
26.007275 3.2067213 -10.643203
25.22378 -0.78216743 10.247583
25.20384 0.45954049 9.5078716
25.44276 1.7227482 8.9108801
26.225365 3.0671699 8.4908276
25.190756 -0.77887374 7.4156494
25.165741 0.46866101 6.7338099
25.4284 1.7263474 6.1443686
26.196201 3.0765455 5.6576953
25.14197 -0.77035493 4.747992
25.101732 0.46106255 4.1006618
25.362263 1.7197131 3.4981384
26.094883 3.045584 2.9577661
25.116545 -0.78071684 2.1879721
25.070091 0.45193249 1.5593948
25.315685 1.7083189 0.9566043
26.080326 3.0484612 0.33621839
25.096899 -0.7699908 -0.31369627
25.032532 0.46251237 -0.93498933
25.287004 1.7008094 -1.5732599
26.013706 3.0454917 -2.2863197
25.005947 -0.78745139 -2.8162801
24.993202 0.45460802 -3.4458237
25.254766 1.7091675 -4.136476
25.948259 3.0313849 -4.9311905
25.011694 -0.78276503 -5.3763609
24.9151 0.44753227 -6.0116124
25.197756 1.7066575 -6.7532239
25.910042 3.0267382 -7.6872549
24.983101 -0.77184051 -8.0369539
24.922865 0.45634294 -8.7093763
25.245291 1.6996384 -9.5502234
25.830288 3.024116 -10.56298
25.255236 -0.93828756 10.26251
25.166288 0.3044014 9.4928217
25.400909 1.5634049 8.8926954
26.068302 2.8867743 8.4340839
25.188587 -0.93354094 7.4165573
25.133112 0.31380072 6.7244372
25.377605 1.5665293 6.1296568
26.043558 2.8967283 5.6207843
25.148298 -0.92503268 4.7501693
25.074537 0.30667108 4.0958343
25.34918 1.5626333 3.4949455
26.007807 2.8737791 2.9458423
25.093187 -0.93414086 2.1863956
25.07653 0.29814601 1.5596522
25.268419 1.5494409 0.95444107
25.894468 2.8657925 0.3335894
25.087257 -0.92380422 -0.31364068
25.0396 0.30896494 -0.93516499
25.243542 1.5423551 -1.5699376
25.878687 2.8688319 -2.2728629
25.063856 -0.94324905 -2.823401
24.977427 0.30102596 -3.4433291
25.182106 1.5490894 -4.1229405
25.812193 2.8550587 -4.9019108
25.03693 -0.9373616 -5.3829207
24.932018 0.29482079 -6.0151448
25.164875 1.5493749 -6.7417369
25.761602 2.8492823 -7.6378832
24.988592 -0.92551553 -8.0403957
24.909101 0.30321464 -8.7037525
25.184158 1.5403562 -9.5233421
25.718719 2.8511956 -10.510003
25.288631 -1.0949489 10.278617
25.150923 0.14987837 9.4865007
25.366207 1.4050913 8.8773613
25.928091 2.7103107 8.3831816
25.225948 -1.0899599 7.4293871
25.083555 0.15925702 6.7107906
25.318287 1.4069818 6.1131287
25.903111 2.7203088 5.5867653
25.202358 -1.081907 4.7615452
25.066486 0.15275317 4.0942893
25.303118 1.4040029 3.4873419
25.836666 2.6945078 2.9245296
25.186914 -1.0924265 2.1951048
25.034761 0.14402559 1.5569701
25.260906 1.393455 0.95381641
25.819731 2.6972597 0.33240715
25.111488 -1.0790246 -0.31402048
25.035141 0.15528251 -0.93494529
25.204927 1.3848193 -1.5669782
25.756893 2.6954525 -2.2606711
25.093613 -1.098597 -2.8274589
24.945654 0.14756559 -3.4387593
25.136751 1.391535 -4.1140394
25.686193 2.6816916 -4.8747659
25.050079 -1.0918119 -5.3870869
24.938587 0.14186499 -6.0164061
25.132391 1.3926364 -6.7306185
25.671711 2.6799998 -7.6062131
24.998369 -1.079513 -8.0455217
24.860832 0.15006979 -8.6864014
25.129805 1.3823164 -9.499402
25.625696 2.6818194 -10.465067
25.352942 -1.2536321 10.307688
25.12505 -0.0044429605 9.476573
25.310999 1.2463013 8.855197
25.838202 2.5407414 8.3489208
25.281387 -1.2478127 7.4478292
