# .PCD v0.7 - Point Cloud Data file format
VERSION 0.7
FIELDS x y z
SIZE 4 4 4
TYPE F F F
COUNT 1 1 1
WIDTH 1546
HEIGHT 1
VIEWPOINT 0 0 0 1 0 0 0
POINTS 1546
DATA ascii
26.226391 -2.0988529 10.682376
25.75947 -0.79553765 9.7258692
25.686068 0.46633482 8.9697266
26.059927 1.7582902 8.3936777
26.176222 -2.0888746 7.7235594
25.660791 -0.79537678 6.8621693
25.681839 0.47668493 6.1832147
25.988871 1.7663311 5.5875211
26.158287 -2.0986049 4.9534807
25.665894 -0.78724277 4.196732
25.626966 0.48086879 3.5143788
25.951284 1.7428509 2.9217985
26.103121 -2.0948086 2.2892048
25.645956 -0.79171747 1.5956459
25.594551 0.47029179 0.95593703
25.906389 1.7464892 0.3287681
26.097015 -2.0945005 -0.33002535
25.580454 -0.79251838 -0.94986469
25.583145 0.46836472 -1.593515
25.842474 1.7453469 -2.2597091
26.05748 -2.0973899 -2.9425364
25.535612 -0.79992396 -3.5182865
25.49194 0.46932992 -4.1710787
25.775436 1.7421018 -4.8778019
25.97357 -2.0840781 -5.5962639
25.525646 -0.79969341 -6.1456985
25.443569 0.47204548 -6.8098817
25.765249 1.7409996 -7.6031995
25.884209 -2.0800714 -8.352005
25.438023 -0.78356236 -8.8878441
25.419792 0.45804691 -9.5874338
25.695438 1.7430331 -10.461494
26.347794 -2.271354 10.737299
25.789307 -0.95488328 9.7391634
25.690834 0.30874798 8.9705601
25.962143 1.5917298 8.3588781
26.295797 -2.260875 7.7627892
25.745932 -0.95617479 6.8863764
25.627035 0.31838396 6.1694336
25.9223 1.6020793 5.5709901
26.210072 -2.2646992 4.9658246
25.670359 -0.94507092 4.1983314
25.618328 0.32347539 3.5128558
25.850513 1.5768148 2.9093089
26.195612 -2.2640824 2.2984915
25.678148 -0.95045233 1.5979816
25.545172 0.31260404 0.9540031
25.851994 1.583539 0.3279483
26.137552 -2.2592466 -0.33070704
25.603638 -0.95052129 -0.95092422
25.504387 0.31039301 -1.5884608
25.816486 1.584525 -2.2565441
26.111683 -2.263092 -2.9501698
25.583618 -0.95859319 -3.525645
25.460209 0.31248662 -4.1654949
25.727125 1.5803195 -4.8667326
26.03388 -2.2497687 -5.6121268
25.562004 -0.95786506 -6.1557512
25.433519 0.31576303 -6.8065453
25.691416 1.577714 -7.5784121
26.018641 -2.2516351 -8.399682
25.490044 -0.94174969 -8.9078712
25.39496 0.30174258 -9.5771904
25.656837 1.5823256 -10.441629
26.45433 -2.444155 10.786625
25.832747 -1.1152548 9.7579679
25.626163 0.15071753 8.9474878
25.906044 1.4287934 8.3378382
26.387028 -2.4319124 7.7939796
25.758471 -1.1149485 6.8914309
25.639482 0.16120245 6.1720757
25.835609 1.4376489 5.5503588
26.359428 -2.44064 4.9968657
25.747816 -1.1061611 4.2120299
25.569426 0.16595106 3.5059445
25.795549 1.414651 2.9020915
26.282324 -2.4341362 2.3073671
25.708586 -1.109579 1.6002693
25.566952 0.15598002 0.9547627
25.783588 1.420607 0.32696381
26.248447 -2.4311819 -0.33229265
25.646723 -1.1097419 -0.95275939
25.519987 0.15398073 -1.5893435
25.729031 1.4207488 -2.2480955
26.202539 -2.4330394 -2.9620659
25.642559 -1.1184015 -3.5346467
25.498781 0.15648769 -4.1715698
25.693947 1.4200882 -4.858717
26.148146 -2.4213722 -5.6398559
25.580873 -1.115793 -6.161828
25.427404 0.15965235 -6.8045182
25.641912 1.4168011 -7.5611024
26.102312 -2.420325 -8.4313297
25.529507 -1.1001061 -8.9238529
25.408123 0.14598407 -9.5816364
25.638397 1.4233327 -10.430375
26.616737 -2.6239676 10.859206
25.848284 -1.2748684 9.7666082
25.650835 -0.0065306574 8.9559479
25.839544 1.2661457 8.313777
26.532827 -2.6096313 7.8416266
25.846775 -1.2777059 6.9170232
25.625725 0.0038763406 6.168642
25.806561 1.2772473 5.5423298
26.477657 -2.6155398 5.0222259
25.795692 -1.2668341 4.2210541
25.56436 0.0090549076 3.5051763
25.767582 1.2545854 2.8980248
26.463049 -2.6147375 2.3245981
25.744347 -1.269426 1.60295
25.531763 -0.00089753664 0.95343089
25.727982 1.2592506 0.32615459
26.372305 -2.6059556 -0.33405676
25.706419 -1.2703968 -0.95524865
25.49106 -0.0026068534 -1.5875132
25.680077 1.2600458 -2.2431004
26.324223 -2.6073489 -2.9775741
25.674856 -1.2776932 -3.5401127
25.510912 2.7175869e-05 -4.1734757
25.642868 1.2594931 -4.8475051
26.266384 -2.5949664 -5.6686864
25.635178 -1.2758006 -6.1766782
25.441319 0.0036316323 -6.8081074
25.613449 1.257638 -7.550292
26.212633 -2.5928702 -8.4719439
25.580183 -1.259583 -8.9441004
25.376007 -0.0099072866 -9.5693674
25.555004 1.2614677 -10.393104
26.742266 -2.8021283 10.91723
25.932341 -1.4385704 9.8015203
25.681509 -0.16412048 8.9668398
25.827534 1.1067467 8.3075714
26.697119 -2.7912879 7.8950949
25.892372 -1.4392722 6.931459
25.588039 -0.15313743 6.1596804
25.771585 1.1170425 5.5332422
26.635645 -2.7962778 5.0553517
25.834148 -1.4276713 4.2287006
25.594334 -0.147981 3.5093446
25.705475 1.093506 2.8902304
26.54994 -2.7879233 2.3336895
25.838911 -1.4330699 1.6093552
25.518534 -0.15747882 0.95295501
25.676224 1.098838 0.32540682
26.512865 -2.7842157 -0.33604729
25.750715 -1.4310263 -0.95720303
25.505951 -0.15911299 -1.5884715
25.62681 1.0998547 -2.2378159
26.475327 -2.7864614 -2.9965434
25.718542 -1.4381151 -3.547286
25.48093 -0.15632385 -4.1686497
25.624632 1.101033 -4.8426895
26.397259 -2.7715497 -5.7004938
25.679888 -1.4360361 -6.1894574
25.427284 -0.15239206 -6.8044739
25.572176 1.0983697 -7.5359969
26.328949 -2.7676101 -8.5148649
25.62043 -1.4192005 -8.9610491
25.397924 -0.16575791 -9.5778351
25.548471 1.1040455 -10.387496
26.91514 -2.9873145 10.995078
25.95517 -1.5996422 9.813674
25.672735 -0.32160491 8.9642973
25.739931 0.94480419 8.2773733
26.812038 -2.9697273 7.9343195
25.917629 -1.6002524 6.9407177
25.649771 -0.31090531 6.1748838
25.726704 0.95698363 5.5222411
26.762289 -2.9757032 5.0827584
25.920088 -1.5920061 4.244287
25.604496 -0.30515975 3.5109286
25.696974 0.93522352 2.8885753
26.740662 -2.9739473 2.3520133
25.871107 -1.5941433 1.6119394
25.571043 -0.31471872 0.95497006
25.655621 0.94028646 0.32506645
26.680592 -2.9674537 -0.33839762
25.836876 -1.5948933 -0.96075147
25.545221 -0.31611556 -1.5910079
25.574379 0.94043261 -2.2326915
26.630405 -2.9681041 -3.0161002
25.759043 -1.5989859 -3.5541584
25.486082 -0.31274983 -4.1697278
25.526869 0.93995166 -4.8230329
26.509346 -2.9478786 -5.7284975
25.757536 -1.5989751 -6.2104201
25.483488 -0.30910698 -6.8198938
25.493282 0.93830687 -7.5109091
26.460964 -2.9457517 -8.5632448
25.682646 -1.5807729 -8.9860334
25.439154 -0.32213452 -9.5939484
25.451679 0.94344109 -10.345593
27.090002 -3.1751091 11.074262
26.050003 -1.7659974 9.8534412
25.696047 -0.47960475 8.9732962
25.755344 0.78715783 8.2806206
27.036924 -3.162684 8.0064602
26.011665 -1.7663352 6.9686713
25.686827 -0.46900374 6.1843815
25.681751 0.79754621 5.5114384
26.970903 -3.166553 5.1259727
25.960457 -1.7544399 4.2525797
25.645191 -0.46303749 3.5168321
25.647032 0.77586251 2.8823717
26.878479 -3.1563549 2.3657942
25.924702 -1.7571841 1.6159201
25.574022 -0.47171322 0.95517135
25.590776 0.78070927 0.32417807
26.814938 -3.1490815 -0.34034026
25.888748 -1.7576145 -0.96306324
25.559406 -0.47315961 -1.5920423
25.551485 0.78263009 -2.2302315
26.773462 -3.1504853 -3.0344348
25.827227 -1.7623656 -3.5649915
25.490635 -0.46925157 -4.1708651
25.530737 0.78326046 -4.8227649
26.710188 -3.1362467 -5.775948
25.763126 -1.7580743 -6.2142525
25.481073 -0.46546414 -6.8198829
25.484566 0.78143638 -7.5067873
26.653173 -3.132833 -8.631505
25.726063 -1.7419584 -9.0047941
25.433788 -0.47816551 -9.5928507
25.465342 0.78751296 -10.348989
27.356604 -3.3766448 11.191506
26.163557 -1.9350401 9.9006977
25.718256 -0.63789958 8.9822493
25.736828 0.62855285 8.2732716
27.249598 -3.3571746 8.075388
26.102322 -1.9334608 6.9960055
25.649706 -0.62578267 6.1762524
25.674376 0.63965732 5.5089092
27.21332 -3.364419 5.1758714
26.025002 -1.9192874 4.2650013
25.617352 -0.61979163 3.5134697
25.653347 0.61852974 2.8826005
27.071884 -3.3475916 2.3845804
25.998135 -1.9224854 1.621202
25.59936 -0.62932944 0.95624399
25.593655 0.62363768 0.32415995
27.053026 -3.3454502 -0.34361622
25.951956 -1.9219477 -0.96583509
25.55509 -0.62995732 -1.5919843
25.561878 0.62598312 -2.2307615
26.977585 -3.3424523 -3.0598361
25.926985 -1.9290684 -3.5803277
25.521376 -0.62648743 -4.1764455
25.497593 0.62567264 -4.8156877
26.867529 -3.3219733 -5.8142705
25.868994 -1.9248369 -6.2425199
25.489096 -0.62208152 -6.8229237
25.446074 0.6240015 -7.4941802
26.85063 -3.3231945 -8.701889
25.827156 -1.9080716 -9.0441074
25.473043 -0.63527942 -9.6089468
25.426882 0.63018471 -10.331592
27.617882 -3.5810704 11.307171
26.258331 -2.1041257 9.9412613
25.743187 -0.79659939 8.9924946
25.714046 0.47014466 8.2648659
27.519596 -3.5619922 8.161725
26.160307 -2.0992298 7.0148673
25.713428 -0.78523242 6.1926394
25.630783 0.48122719 5.4988184
27.420092 -3.5609334 5.2192559
26.135296 -2.0887327 4.2850966
25.687611 -0.77922636 3.5236955
25.604467 0.46017408 2.8767366
26.102875 -2.0913467 1.628503
25.605129 -0.78670305 0.95662189
25.577963 0.46623924 0.32391888
27.302917 -3.5465746 -0.34706008
26.045174 -2.0896139 -0.96976328
25.571051 -0.78737378 -1.5932496
25.523502 0.46836069 -2.2271199
27.219997 -3.5422015 -3.0897381
26.037201 -2.0979912 -3.5972574
25.525965 -0.78334546 -4.1779046
25.482214 0.46886575 -4.8121495
27.104876 -3.5203061 -5.8701973
25.949514 -2.0910091 -6.2649283
25.490482 -0.77864164 -6.8244457
25.494869 0.46869108 -7.5075622
27.048357 -3.5163057 -8.7727976
25.885977 -2.0721929 -9.0689859
25.458939 -0.79126477 -9.6052761
25.423409 0.47402844 -10.328805
28.040462 -3.8109527 11.489539
26.335567 -2.2730272 9.9755945
25.805527 -0.95705277 9.0161514
25.655313 0.31161484 8.2452183
27.861179 -3.780163 8.2697554
26.294239 -2.2724376 7.0543876
25.725084 -0.94361424 6.1967244
25.655416 0.32423073 5.5035729
27.803391 -3.7843282 5.296535
26.227991 -2.2581832 4.3024855
25.673143 -0.93649226 3.5224328
25.611578 0.30311576 2.8772724
27.678116 -3.7679522 2.4418685
26.188293 -2.2599931 1.6346664
25.631218 -0.94495589 0.95779508
25.537142 0.30876467 0.32337183
27.545624 -3.7501101 -0.35043114
26.137672 -2.2585275 -0.97370499
25.604729 -0.94570011 -1.5956796
25.505602 0.31149477 -2.2253492
27.473551 -3.7467666 -3.1210697
26.095886 -2.2639635 -3.6072168
25.561495 -0.94145834 -4.1845865
25.479795 0.31244195 -4.8112397
27.399151 -3.7296193 -5.9387741
26.056391 -2.2606208 -6.2939615
25.500944 -0.93561041 -6.8286552
25.465633 0.31186128 -7.4982491
27.306351 -3.7203641 -8.8637114
26.004492 -2.2423453 -9.1151571
25.486193 -0.94867611 -9.6175737
25.386789 0.317536 -10.312942
26.434914 -2.4451015 10.01872
25.811834 -1.1159222 9.0205784
25.67923 0.15432605 8.2524443
28.365078 -4.0259309 8.4264956
26.374138 -2.4424696 7.079711
25.786497 -1.1043415 6.2130332
25.593695 0.16639487 5.4900103
28.259535 -4.0231748 5.3880315
26.344717 -2.4311688 4.3239989
25.745193 -1.0973384 3.5331755
25.587305 0.14581423 2.8743908
26.290928 -2.4314587 1.6419731
25.713837 -1.1060321 0.96111792
25.543531 0.15209553 0.32343483
27.969816 -3.9828103 -0.35613185
26.234032 -2.4291139 -0.97783148
25.649487 -1.1049889 -1.5988612
25.506323 0.15498517 -2.2252872
27.856853 -3.9732952 -3.1673241
26.188253 -2.4339635 -3.6219809
25.602768 -1.1003258 -4.1923695
25.465935 0.15600127 -4.8083515
27.749655 -3.950902 -6.0198874
26.135374 -2.4291332 -6.3165216
25.590754 -1.0961771 -6.8543763
25.456635 0.1555375 -7.4951768
26.061935 -2.408489 -9.1402998
25.506866 -1.1062084 -9.6277561
25.418821 0.16195433 -10.325356
26.583345 -2.6190889 10.07482
25.863014 -1.2708446 9.0442314
25.6453 -1.3659514e-05 8.246067
26.532682 -2.6151106 7.1178479
25.807129 -1.255684 6.2210865
25.59997 0.0010635587 5.501976
26.415743 -2.597405 4.3303642
25.756744 -1.2583618 3.5542731
25.565115 -0.0029139961 2.8819957
28.95602 -4.297915 2.557734
26.418434 -2.6037505 1.6499765
25.735689 -1.2728053 0.95662826
25.550007 -0.0034838421 0.30887511
28.660393 -4.2574058 -0.36343676
26.371416 -2.603045 -0.99008489
25.711031 -1.2607545 -1.6032077
25.505854 -0.0042250091 -2.2291312
28.463776 -4.2387829 -3.2328699
26.32288 -2.6025581 -3.6462564
25.676876 -1.2683336 -4.1933575
25.476385 0.00058349042 -4.8026443
28.184298 -4.1976852 -6.1148858
26.234125 -2.6025453 -6.3571558
25.608891 -1.2578517 -6.8565984
25.435425 0.0019779683 -7.4841714
28.074162 -4.1745868 -9.1207552
26.175198 -2.5820861 -9.1856909
25.580442 -1.2645535 -9.6586266
25.360527 -0.00036471154 -10.297478
26.73642 -2.7999179 10.139154
25.930155 -1.4336834 9.0706158
25.651264 -0.15740983 8.2481403
26.691982 -2.7962844 7.1650505
25.854074 -1.417032 6.2343826
25.608599 -0.15607043 5.5039334
26.594152 -2.7798069 4.3623247
25.876337 -1.4234085 3.5719137
25.584806 -0.15990473 2.8842719
26.539022 -2.7801602 1.658542
25.80047 -1.4347563 0.9593454
25.533997 -0.16015841 0.30868763
26.4683 -2.7766995 -0.99434328
25.760504 -1.4216747 -1.6068063
25.511177 -0.16076262 -2.2296407
26.419245 -2.7758784 -3.6618955
25.701778 -1.4277025 -4.1987762
25.472876 -0.15571813 -4.802072
26.385057 -2.78111 -6.3977456
25.66782 -1.4186715 -6.8745775
25.43302 -0.15407915 -7.4836011
28.953041 -4.4870257 -9.4150543
26.315172 -2.7590342 -9.2405796
25.62048 -1.4241722 -9.6768618
25.37109 -0.15604189 -10.301962
26.880125 -2.9818194 10.200397
25.952995 -1.5947349 9.0818577
25.678951 -0.31515765 8.2575102
26.801247 -2.9740953 7.1991444
25.94364 -1.5816629 6.2582021
25.634518 -0.31353351 5.5098133
26.776224 -2.9650385 4.3950925
25.891008 -1.5836174 3.5752132
25.58885 -0.31695536 2.8848929
26.713634 -2.964272 1.6705596
25.821833 -1.5949311 0.96048552
25.586538 -0.31749919 0.30934057
26.647331 -2.9608951 -1.0017327
25.813725 -1.583541 -1.6107016
25.533585 -0.31759024 -2.2317276
26.606108 -2.9606757 -3.6902444
25.748066 -1.5888054 -4.2078514
25.485037 -0.3121804 -4.804636
26.529764 -2.9610646 -6.4371176
25.744844 -1.5814356 -6.8976765
25.467346 -0.31056634 -7.4941211
26.430641 -2.9352074 -9.2872763
25.633886 -1.5827469 -9.6854115
25.396093 -0.31203789 -10.312697
27.067743 -3.1708782 10.278785
26.015388 -1.7588623 9.1072969
25.735317 -0.47379705 8.2764149
26.997515 -3.163686 7.2569423
25.992342 -1.744774 6.2724147
25.643139 -0.47102064 5.5121837
26.905407 -3.1465733 4.4193826
25.939901 -1.7464308 3.5833771
25.604601 -0.47429633 2.8869424
26.836239 -3.1446855 1.6794019
25.909779 -1.7600129 0.96414042
25.561487 -0.47406974 0.30906707
26.81382 -3.1460688 -1.008698
25.873085 -1.7465974 -1.615044
25.500038 -0.47367737 -2.2290075
26.72657 -3.1402192 -3.7095554
25.82799 -1.7528815 -4.2225909
25.498926 -0.46884716 -4.8077059
26.701223 -3.1461952 -6.4832826
25.783466 -1.7426721 -6.9107585
25.468267 -0.46688578 -7.4950938
26.623384 -3.1221006 -9.361558
25.715162 -1.7462149 -9.719985
25.411415 -0.4681859 -10.319891
27.339878 -3.3729396 10.38979
26.131468 -1.9278529 9.1519012
25.731325 -0.63168228 8.2762203
27.276985 -3.3662276 7.3374777
26.04631 -1.9090029 6.2881465
25.661072 -0.62887722 5.5167642
26.020859 -1.912335 3.5961137
25.630747 -0.63212281 2.8902731
27.074259 -3.3411067 1.6955481
25.990963 -1.9258107 0.96758288
25.600662 -0.63195384 0.30958179
27.009064 -3.3433292 -1.0193825
25.960535 -1.9319402 -1.626332
25.548075 -0.62582207 -2.2249436
26.945442 -3.3343027 -3.7334459
25.881765 -1.9121478 -4.2329817
25.481579 -0.61468697 -4.8117752
26.87501 -3.3328974 -6.5317869
25.857679 -1.9053415 -6.9289761
25.48358 -0.62539667 -7.4997497
26.813152 -3.3170915 -9.4265566
25.785583 -1.9059116 -9.7511978
25.45694 -0.62063193 -10.338371
27.592155 -3.5760758 10.493802
26.208349 -2.0952878 9.1831579
25.709335 -0.7890138 8.2705498
26.160303 -2.0788124 6.3186278
25.709034 -0.78792185 5.5280108
27.374664 -3.5424917 4.503263
26.104729 -2.0796154 3.6094003
25.671432 -0.79076582 2.8953538
26.082848 -2.0936151 0.97146344
25.629318 -0.7900424 0.30998108
27.259548 -3.5442927 -1.0296377
26.043285 -2.0988581 -1.632292
25.571432 -0.78341836 -2.2273545
27.192091 -3.5343573 -3.7705541
25.987482 -2.0803604 -4.2522793
25.547619 -0.77315468 -4.8250513
27.116257 -3.5318887 -6.5955634
25.92507 -2.0703197 -6.9503078
25.456718 -0.78105742 -7.4931135
27.029486 -3.5123742 -9.5100098
25.871454 -2.0719457 -9.7882938
25.44356 -0.77654362 -10.334677
26.320799 -2.2668941 9.2272577
25.737511 -0.94798243 8.2813292
26.299952 -2.2523842 6.355576
25.717522 -0.94616252 5.5309801
26.18527 -2.2478034 3.6223752
25.706211 -0.94974995 2.899879
27.62908 -3.7543375 1.7330492
26.18922 -2.2639656 0.97592437
25.643469 -0.94800621 0.31021675
26.16151 -2.2504942 -1.635357
25.580738 -0.94643754 -2.2322392
27.464325 -3.7406058 -3.8141255
26.081837 -2.2530873 -4.2708015
25.525047 -0.93955779 -4.8236027
27.347273 -3.7338779 -6.6490865
26.031689 -2.2414777 -6.9835181
25.498425 -0.93717712 -7.5114069
27.268656 -3.7077875 -9.609292
26.014772 -2.2482991 -9.8472109
25.493685 -0.93935508 -10.357882
28.599787 -4.0641236 10.895171
26.381929 -2.4353254 9.2537537
25.803995 -1.1090152 8.3047543
28.321192 -4.0256271 7.6370096
26.345985 -2.4192569 6.3701677
25.766956 -1.1063372 5.5429673
28.160023 -3.996062 4.6401768
26.292782 -2.4196393 3.6392334
25.706646 -1.107753 2.90064
28.064089 -3.9889746 1.7618375
26.27039 -2.4334686 0.97948706
25.683943 -1.1073503 0.31078273
27.95472 -3.9776375 -1.0521888
26.199066 -2.4157577 -1.6386005
25.642656 -1.106323 -2.2381928
27.844515 -3.9665563 -3.8702321
26.143349 -2.4200993 -4.2832246
25.610861 -1.1001133 -4.8410039
27.751766 -3.9627104 -6.7532177
26.146143 -2.4130406 -7.0180626
25.546162 -1.09593 -7.5273085
27.56881 -3.9210341 -9.7233591
26.065811 -2.4139299 -9.8719511
25.508305 -1.0966609 -10.366362
26.568054 -2.6170104 9.3244953
25.872759 -1.2710609 8.3292379
26.51804 -2.5992353 6.415504
25.849939 -1.2688496 5.5623889
26.446623 -2.5975404 3.6626642
25.808563 -1.2708424 2.9129655
26.431644 -2.6120749 0.98607844
25.719957 -1.2670561 0.31130674
26.347275 -2.592557 -1.6488339
25.707825 -1.2672132 -2.2445173
26.290318 -2.5964966 -4.3098326
25.636145 -1.2588345 -4.8471518
26.19594 -2.5798357 -7.0355458
25.598383 -1.2555726 -7.5448232
27.983032 -4.1552777 -9.8782606
26.161095 -2.5847471 -9.9138575
25.55467 -1.2557889 -10.388141
26.717745 -2.7973864 9.3828793
25.894943 -1.4314736 8.3390512
26.628584 -2.7751329 6.4462461
25.897795 -1.4305384 5.5744705
26.573465 -2.7747252 3.6825194
25.844679 -1.4316362 2.917978
26.541042 -2.7874322 0.99077922
25.7582 -1.4274238 0.31186971
26.468569 -2.7685752 -1.6574565
25.733576 -1.4268154 -2.2474875
26.434637 -2.7746344 -4.3362007
25.702118 -1.4202101 -4.8611817
26.362137 -2.7596285 -7.0845966
25.668911 -1.4169627 -7.5680313
28.817654 -4.4601021 -10.182358
26.288019 -2.7602642 -9.9681873
25.609785 -1.4160659 -10.413881
26.866571 -2.9797366 9.4413881
25.971001 -1.5955775 8.366539
26.770866 -2.9561172 6.4849586
25.933556 -1.5921816 5.5841656
26.740534 -2.9581451 3.7081168
25.857117 -1.5915254 2.9204299
26.741974 -2.9745405 0.99894249
25.820181 -1.5898317 0.3127324
26.59915 -2.9473381 -1.6733713
25.773933 -1.5877421 -2.2545543
26.575659 -2.9544072 -4.3594441
25.755344 -1.5817224 -4.8693004
26.494219 -2.9379108 -7.1346765
25.717928 -1.5780083 -7.5841722
26.422771 -2.9384365 -10.021794
25.651571 -1.5763094 -10.43328
27.031746 -3.1660769 9.5060816
26.016764 -1.7586908 8.3846006
26.970535 -3.1457882 6.5378795
25.96489 -1.7540867 5.5931249
26.916098 -3.1448586 3.7350681
25.915529 -1.7548012 2.9281883
26.818846 -3.149801 1.0025171
25.894531 -1.7539614 0.31375736
26.759806 -3.1314669 -1.6846554
25.854996 -1.7520443 -2.262543
26.750124 -3.1400836 -4.3911409
25.799704 -1.7434106 -4.8796177
26.627235 -3.1181669 -7.1755142
25.765131 -1.7396544 -7.6010976
26.602423 -3.1237791 -10.097013
25.728664 -1.7395738 -10.468781
27.29146 -3.3663757 9.604497
26.129137 -1.927415 8.424469
27.186825 -3.3402247 6.5951543
26.052782 -1.9206804 5.6144905
27.102758 -3.3353615 3.7637396
26.034426 -1.9233983 2.9429004
27.087704 -3.3500021 1.0133166
25.98633 -1.9204296 0.31500652
27.025476 -3.3511193 -1.7001289
25.929289 -1.9112847 -2.2654693
26.943243 -3.3262789 -4.4308429
25.896425 -1.8991547 -4.8966417
26.824583 -3.3063645 -7.2282386
25.83482 -1.9054971 -7.6222005
26.742815 -3.3024464 -10.168793
25.791685 -1.8981305 -10.500425
27.54772 -3.5697196 9.7022066
26.197859 -2.0941823 8.4506102
27.466578 -3.5458033 6.66817
26.185585 -2.0920923 5.6457705
27.399109 -3.5426276 3.8078406
26.116627 -2.0906708 2.9535871
27.334568 -3.5509522 1.0233474
26.074741 -2.0879047 0.31622761
27.254023 -3.5493903 -1.7158442
26.002283 -2.0771546 -2.2729175
27.149902 -3.5210512 -4.468297
25.990191 -2.0664368 -4.9166756
27.031898 -3.5004327 -7.2897525
25.91255 -2.071167 -7.6487393
25.887604 -2.0649686 -10.544436
26.296452 -2.2645292 8.4867353
26.217323 -2.2566037 5.6554923
26.197819 -2.2590296 2.9642808
27.609667 -3.7590988 1.0344905
26.168455 -2.2570875 0.31752613
27.500185 -3.7324224 -1.7284151
26.118214 -2.2535248 -2.2860446
27.404713 -3.7294991 -4.5119772
26.0762 -2.2449465 -4.9426374
27.292866 -3.7065639 -7.361825
26.011543 -2.2379422 -7.6856804
27.241966 -3.7084146 -10.36819
25.938808 -2.2340925 -10.570578
28.539513 -4.0549378 10.068281
26.373812 -2.4343073 8.5163622
28.244473 -3.9991913 6.8684216
26.377964 -2.4335711 5.6932592
28.181629 -3.9960043 3.9231129
26.285257 -2.429141 2.9758053
28.074429 -3.9979813 1.0528038
26.272379 -2.4285438 0.31896195
26.209713 -2.4235253 -2.2953117
27.829149 -3.961328 -4.585773
26.18516 -2.4162755 -4.9660072
27.625019 -3.9244502 -7.4577732
26.100826 -2.4070494 -7.7162805
27.566322 -3.9249942 -10.500606
26.060379 -2.4057412 -10.625935
26.511852 -2.6102915 8.5615139
26.477047 -2.6073627 5.7134957
29.027664 -4.297821 4.0379982
26.450209 -2.6043074 2.9930284
28.830915 -4.2863617 1.0821383
26.367062 -2.6035936 0.33472863
28.486296 -4.2228913 -1.8002777
26.29281 -2.5882161 -2.3067312
26.2255 -2.5717177 -4.9763727
28.12199 -4.1712427 -7.602674
26.191303 -2.579421 -7.7476115
28.004599 -4.1628709 -10.686185
26.131414 -2.5692647 -10.66297
26.685274 -2.792794 8.6228895
26.636852 -2.7882285 5.751564
26.590595 -2.7829711 3.0107899
26.521784 -2.7832959 0.3369033
26.486937 -2.7715232 -2.3252106
26.390305 -2.7514653 -5.0107536
26.3496 -2.7583585 -7.7992969
28.784357 -4.4594703 -10.993965
26.295895 -2.7484465 -10.736766
26.834154 -2.9749405 8.676733
26.779942 -2.9694355 5.7862859
26.715256 -2.9618452 3.0269058
26.667688 -2.9641495 0.33898139
26.625942 -2.95134 -2.3389592
26.552649 -2.9331951 -5.0449009
26.485481 -2.9369848 -7.8447032
26.43788 -2.927387 -10.801869
27.025415 -3.1641247 8.7446899
26.960297 -3.1570098 5.8293304
26.883505 -3.1475968 3.0480998
26.849339 -3.1512365 0.34152973
26.790981 -3.1361563 -2.3551033
26.701815 -3.1156273 -5.0767784
26.648432 -3.1206927 -7.8984909
26.55023 -3.1048489 -10.855352
27.274542 -3.3630648 8.8318119
27.195446 -3.3538268 5.8845134
27.130806 -3.3454297 3.0784087
27.036304 -3.3414814 0.34416229
26.949062 -3.3224072 -2.3707469
26.869612 -3.3024423 -5.1124377
26.811525 -3.3066833 -7.9526949
26.748114 -3.2944806 -10.94432
27.516335 -3.5644159 8.9170208
27.453283 -3.5567687 5.9449139
27.363523 -3.5447099 3.1072235
27.306896 -3.5451677 0.34787717
27.223846 -3.5259969 -2.3967783
27.143961 -3.5053606 -5.168633
27.069132 -3.5072043 -8.0353365
26.934208 -3.4853036 -11.029004
27.936893 -3.7933307 9.0606804
27.800915 -3.7753947 6.0250955
27.648472 -3.7542579 3.1421371
27.571001 -3.7516201 0.35152841
27.482801 -3.7311358 -2.4215467
27.295475 -3.7069628 -8.1091251
27.215357 -3.6916089 -11.153194
28.049547 -3.9921818 0.35793543
27.860073 -3.9566004 -2.4568813
27.700411 -3.9233909 -5.28336
27.620277 -3.9238212 -8.2126179
27.486473 -3.9002872 -11.273896
29.02387 -4.3043842 3.3041999
28.723854 -4.2681303 0.36686745
28.384598 -4.2089276 -2.5053678
28.158493 -4.1646719 -5.3755045
28.987247 -4.481576 -8.6347761
28.631767 -4.4218855 -11.765024
16.746294 42.619423 -14.710835
16.918369 42.293087 -14.633752
17.016184 41.792145 -14.496275
16.473522 39.739887 -9.237011
17.167526 41.434101 -14.40835
16.561129 39.268356 -9.1508579
16.719963 38.975319 -9.1063061
16.842247 38.604843 -9.0437222
16.717638 44.079235 -16.450087
16.349257 36.820217 -4.5381122
16.975784 38.268536 -8.9891701
16.827414 43.560669 -16.294788
16.443697 36.4286 -4.5021968
17.087103 37.890514 -8.9248343
16.95859 43.111393 -16.165348
16.546936 36.065529 -4.4697886
17.100025 42.69997 -16.050119
16.68343 35.782108 -4.4472661
16.277964 34.38345 -0.46705213
16.823971 35.512955 -4.4265604
16.605518 40.009205 -10.429578
16.317764 33.927658 -0.46221223
16.931629 35.180641 -4.3980064
16.759684 39.691017 -10.373245
16.426628 33.624241 -0.45944309
17.050539 34.87841 -4.3732204
16.891415 39.327843 -10.305224
16.775791 45.030643 -18.125879
16.544497 33.345184 -0.45700857
17.175945 34.595314 -4.3508573
16.400583 37.589905 -5.6531134
17.007536 38.937576 -10.230113
16.900343 44.527863 -17.964903
16.203775 32.17503 3.1430345
16.68355 33.113552 -0.45522845
16.448076 37.076416 -5.5909629
17.157913 38.633846 -10.177783
17.0434 44.087452 -17.829073
16.239521 31.759407 3.1121094
16.773321 32.789478 -0.45217958
16.586149 36.777199 -5.5610843
17.200901 43.695766 -17.713024
16.295609 31.392393 3.0858858
16.892511 32.528637 -0.4500035
16.715364 36.465015 -5.529284
16.529352 41.323166 -11.913233
16.443291 31.207109 3.0775325
17.00066 32.251503 -0.4476043
16.301863 35.037048 -1.4354343
16.854725 36.181293 -5.5018406
16.665071 40.932304 -11.829808
16.121628 30.135227 6.4450755
16.572035 30.988888 3.0659823
17.132252 32.023254 -0.44588709
16.351009 34.586227 -1.4210482
16.947258 35.804329 -5.4602284
16.797003 40.542267 -11.74665
16.14805 29.744371 6.3825541
16.692467 30.758738 3.053288
16.429161 34.206753 -1.4095721
17.070044 35.498806 -5.4295073
16.927504 40.15863 -11.665369
16.806711 46.128044 -19.941265
16.207127 29.421215 6.3344312
16.7838 30.479431 3.035728
16.597147 33.986137 -1.4049168
16.410082 38.304703 -6.7995391
17.047049 39.758862 -11.579412
16.975338 45.71574 -19.807737
16.323393 29.206783 6.3097095
16.874222 30.203543 3.0185056
16.687717 33.646446 -1.395081
16.460775 37.780903 -6.7243605
17.104521 45.211597 -19.634405
16.196207 28.602884 9.6692877
16.459734 29.03101 6.2934365
16.992323 29.981386 3.0066669
16.252628 32.291172 2.2575064
16.799887 33.356838 -1.3873212
16.614685 37.504025 -6.6930995
16.073416 27.984158 9.4932871
16.577742 28.82546 6.2708101
17.103529 29.750559 2.9939868
16.340694 31.976048 2.2424433
16.915653 33.07988 -1.3800933
16.742529 37.174969 -6.6525846
16.586294 42.184906 -13.348486
16.08062 27.603146 9.3973293
16.670507 28.57955 6.239449
16.452358 31.712822 2.2310212
17.059708 32.862579 -1.3753688
16.316195 35.569649 -2.4286799
16.872711 36.858318 -6.6143222
16.716381 41.761456 -13.246702
16.174366 27.376467 9.3537703
16.751522 28.317768 6.2046213
16.152655 30.650854 5.6591401
16.592903 31.509239 2.22382
17.163757 32.572689 -1.3676182
16.377897 35.133701 -2.40573
16.967325 36.472027 -6.5635605
16.854729 41.369499 -13.15493
16.316189 27.233566 9.338975
16.846285 28.083294 6.1757779
16.166281 30.22558 5.5988307
16.714525 31.273237 2.2143605
16.490713 34.81625 -2.3908765
17.109406 36.195053 -6.532486
17.002466 41.010143 -13.07359
16.004021 26.306726 12.498989
16.403566 27.002209 9.2939777
16.971462 27.902418 6.1587873
16.223965 29.890961 5.5551825
16.799652 30.973841 2.2004185
16.624681 34.549503 -2.379519
16.422693 38.980518 -7.9824991
17.140762 40.637104 -12.987953
16.010107 25.95669 12.379121
16.513523 26.811075 9.2628937
17.071592 27.683022 6.1333666
16.348785 29.685028 5.5354505
16.883148 30.677137 2.1866584
16.247215 33.279602 1.3895309
16.754509 34.279377 -2.3679507
16.500731 38.503716 -7.9054437
16.047707 25.663874 12.286201
16.642145 26.652269 9.2431335
17.175943 27.47348 6.1101756
16.464239 29.465361 5.5132222
17.017422 30.4769 2.1797876
16.27388 32.821838 1.3745613
16.854256 33.953777 -2.3525586
16.666527 38.240795 -7.8723097
16.139894 25.46241 12.236936
16.700136 26.383406 9.1852551
16.091141 28.406601 8.7210674
16.599678 29.284311 5.498301
17.145107 30.267757 2.1723125
16.355227 32.483559 1.3645713
16.96312 33.653008 -2.338887
16.795811 37.900772 -7.8233819
16.259293 25.30604 12.209502
16.811865 26.202753 9.1581039
16.103992 28.02688 8.6346636
16.680683 29.010828 5.4660673
16.478678 32.234795 1.3583432
17.07435 33.362782 -2.3259535
16.336166 36.266239 -3.4862034
16.910334 37.535709 -7.7692981
16.37628 25.14747 12.18125
16.913019 26.00791 9.1261034
16.221149 27.834003 8.6057434
16.796976 28.802643 5.4461594
16.158068 31.16448 4.8305459
16.60133 31.98889 1.3522482
16.390728 35.799141 -3.4509051
17.043829 37.220493 -7.7255554
16.487875 24.982271 12.150005
16.998016 25.790958 9.0864038
16.347391 27.659103 8.5825195
16.892786 28.562748 5.4202962
16.171841 30.728159 4.7782068
16.721212 31.741989 1.346123
16.498684 35.458488 -3.4277618
17.177359 36.912094 -7.6832747
16.584 24.795631 12.108497
17.11595 25.626289 9.0652199
16.443226 27.435524 8.5442905
17.000555 28.346558 5.3989644
16.240379 30.404259 4.7432466
16.825439 31.470039 1.338943
16.637508 35.190685 -3.4116783
16.651131 24.568436 12.047216
16.01 26.338324 11.612667
16.579941 27.282578 8.5281811
17.123053 28.157658 5.3828955
16.35861 30.178553 4.7236052
16.946985 31.234915 1.3333386
16.266638 33.795414 0.47069526
16.76627 34.907112 -3.3940959
16.732861 24.365753 11.997951
16.08906 26.106134 11.553603
16.651678 27.025578 8.4930124
16.142519 29.339863 8.074132
16.494898 29.989292 4.7129159
17.054546 30.978178 1.3268212
16.306555 33.3531 0.46591958
16.869795 34.577419 -3.3720403
16.835064 24.195097 11.964558
16.199831 25.92832 11.518684
16.752901 26.819973 8.4605455
16.110867 28.861599 7.9695711
16.632494 29.804899 4.6998878
17.174284 30.747599 1.3214339
16.408922 33.047035 0.4630419
16.98522 34.27866 -3.3530056
16.92894 24.014368 11.926329
16.303188 25.740911 11.479653
16.840384 26.595436 8.4221516
16.112253 28.452459 7.8837461
16.702084 29.50272 4.6683102
16.53714 32.798477 0.46097225
17.112646 34.00967 -3.3369021
17.025042 23.838728 11.890759
16.407986 25.558086 11.442803
16.924154 26.368366 8.3829718
16.240997 28.273798 7.8617058
16.810648 29.274044 4.6483612
16.162712 31.589394 3.9900179
16.667791 32.55909 0.45903656
17.115999 23.657803 11.852674
16.526035 25.397816 11.416233
17.041189 26.195713 8.3611679
16.384724 28.123056 7.847599
16.906523 29.027103 4.625535
16.2033 31.195189 3.9527097
16.774239 32.277218 0.45650512
16.611109 25.1891 11.368017
16.034851 27.114668 11.001551
17.144922 26.004692 8.3336191
16.485134 27.900406 7.8135486
17.02597 28.824057 4.6097398
16.285307 30.88825 3.9264057
16.860361 31.962112 0.45350313
16.688292 24.971392 11.315763
16.03595 26.740669 10.889524
16.614904 27.730112 7.7942619
17.131081 28.599792 4.5905986
16.402964 30.654003 3.9093494
16.988022 31.730785 0.45169139
16.77475 24.770401 11.271115
16.121824 26.513655 10.837156
16.666708 27.433361 7.7394524
16.118607 29.726114 7.262959
16.534878 30.449903 3.8961861
17.120747 31.512476 0.45007068
16.856689 24.565386 11.224683
16.237989 26.339273 10.8064
16.774389 27.23263 7.7117143
16.141605 29.337502 7.1920738
16.653297 30.224272 3.8803174
16.961765 24.396282 11.194759
16.359226 26.175026 10.779995
16.860281 26.999657 7.6748929
16.159679 28.948353 7.1208491
16.721779 29.912836 3.8534341
17.053633 24.210114 11.157137
16.452164 25.967833 10.736037
16.973774 26.813784 7.6515183
16.282162 28.751825 7.0969472
16.840637 29.696161 3.8387611
17.176867 24.064264 11.157666
16.569862 25.800411 10.705948
17.092604 26.638157 7.6189084
16.396952 28.559137 7.063869
16.966831 29.496855 3.8225822
16.645771 25.572147 10.653411
16.069616 27.56431 10.25349
17.210005 26.462463 7.5987182
16.518459 28.366255 7.0410986
17.061035 29.243979 3.8033066
16.74057 25.375854 10.614229
16.064335 27.170704 10.143552
16.638117 28.172787 7.0182848
17.182323 29.041006 3.7905495
16.806131 25.138302 10.557799
16.169409 26.969313 10.105217
16.730495 27.936293 6.9848132
16.933268 24.995157 10.540555
16.26652 26.757626 10.070727
16.785 27.641106 6.9495416
17.02503 24.801506 10.502748
16.370247 26.559723 10.033859
16.89732 27.445068 6.9261918
17.116169 24.609276 10.465621
16.519859 26.437897 10.025941
17.01177 27.254951 6.9044261
16.605291 26.215305 9.9799795
17.13006 27.07321 6.8848825
16.688004 25.991705 9.9336519
16.762823 25.759201 9.8839159
16.84626 25.543196 9.8405123
16.968584 25.388344 9.8207827
17.074121 25.210041 9.7921524
17.176039 25.028378 9.7623434
28.183918 3.9958081 5.3717532
28.065144 3.9782827 2.4779103
27.797483 3.9335907 -3.1600792
27.69393 3.9260232 -6.0028214
28.038662 3.8055065 11.488506
27.920263 3.7958734 8.2880154
27.76285 3.7624846 5.2869997
27.639999 3.7451615 2.4382987
27.453541 3.7132401 -3.11833
27.249151 3.689187 -8.8326607
27.572861 3.5701256 11.295302
27.339359 3.5337327 2.4098191
27.272169 3.5248415 -0.34664053
27.152308 3.5029831 -3.0816147
27.114504 3.5050211 -5.8674617
27.010859 3.4882884 -8.7483168
27.316586 3.3666539 11.181646
27.292345 3.3699384 8.0925589
27.184742 3.3449512 5.1724377
27.090136 3.3326511 2.3860037
27.030159 3.3250685 -0.34329867
26.926617 3.3060274 -3.0536406
26.843031 3.3026004 -5.8042216
26.767679 3.2900302 -8.6628542
27.019913 3.1681051 8.0016775
26.916941 3.1444633 5.1153708
26.851419 3.1361566 2.3632393
26.796925 3.1295896 -0.34021211
26.721163 3.1144946 -3.0246871
26.678186 3.1162691 -5.7643347
26.644148 3.1090133 -8.616539
26.893778 2.9799845 10.98613
26.822578 2.9782417 7.9376764
26.791073 2.9632452 5.0878992
26.729851 2.9558251 2.3508995
26.65819 2.9476993 -0.33821473
26.574373 2.9322278 -3.0059781
26.546434 2.9358859 -5.7318668
26.46059 2.9231396 -8.5512161
26.792139 2.8024204 10.937381
26.726173 2.8016365 7.9039111
26.600723 2.7770846 5.048419
26.548868 2.7710276 2.3334424
26.516443 2.7674434 -0.3361946
26.434933 2.7527738 -2.9882383
26.370846 2.7527871 -5.6901994
29.012396 4.4667006 -7.0817771
26.345531 2.7469108 -8.5084267
28.775246 4.4456763 -10.156109
26.572247 2.6146941 10.840859
26.540201 2.6176074 7.8440151
26.446938 2.5970871 5.0161138
26.406492 2.5924768 2.3194871
26.360252 2.5877385 -0.33400667
28.534498 4.2241812 -1.077153
26.281548 2.5738926 -2.9690583
26.245464 2.5770059 -5.6596265
28.094473 4.1490712 -6.8513737
26.196394 2.5689762 -8.4550123
26.436811 2.4376795 10.7793
26.392725 2.4396398 7.795857
28.298969 4.0116119 7.6396575
26.355043 2.4248877 4.9957681
28.171228 4.0027804 4.6504688
26.300575 2.4192402 2.308836
28.03384 3.9775772 1.7608461
26.236145 2.4131167 -0.33224025
26.176912 2.4015803 -2.9555171
26.137354 2.4045634 -5.6330256
27.650795 3.9103389 -6.7371964
26.06864 2.3950493 -8.4088764
26.339022 2.2657642 10.733557
27.99695 3.7969139 10.662347
26.273689 2.2661359 7.756443
27.850857 3.7739131 7.512291
26.235519 2.2516382 4.9703994
27.734715 3.7672923 4.5745072
26.158091 2.2443614 2.2950759
26.167711 2.2449901 -0.331193
26.080145 2.2314186 -2.9429903
27.370165 3.6995885 -3.8092999
26.055046 2.2358556 -5.6122251
27.322697 3.6930835 -6.6516075
26.019001 2.2295794 -8.3882942
27.271246 3.7007282 -9.5996046
26.264643 2.0970993 10.697801
27.577051 3.5677857 10.493897
26.204473 2.0982647 7.7320633
27.456743 3.5490839 7.3999724
26.123108 2.0806034 4.9465904
27.411385 3.5522165 4.517498
26.076193 2.0762377 2.2867291
27.335844 3.5369053 1.7141484
26.054979 2.0743532 -0.3295989
27.18574 3.514451 -1.0236226
26.009314 2.0646813 -2.9335124
27.148094 3.5000877 -3.7753329
25.938423 2.0656018 -5.5842695
27.07934 3.4911356 -6.5870242
25.932995 2.0620005 -8.3563299
27.010044 3.4966378 -9.4999294
26.120686 1.9243857 10.634156
27.318617 3.3640532 10.387506
26.108894 1.9294595 7.7002225
27.211237 3.3477256 7.3281302
26.029194 1.9124736 4.9264922
27.171061 3.3516862 4.4744177
25.997648 1.9095294 2.2787712
27.093409 3.336643 1.6976303
25.95631 1.9062986 -0.32819656
27.007318 3.3230326 -1.0161177
25.894825 1.8957785 -2.9192326
26.899118 3.3003244 -3.7378225
25.848791 1.898928 -5.5623593
26.850349 3.2942536 -6.5262828
25.803656 1.8924617 -8.3107548
26.782822 3.3002613 -9.4127111
26.068195 1.7597685 10.608191
27.035219 3.1608789 10.27218
26.001595 1.7611855 7.6652455
27.017838 3.1557686 7.2706957
25.985371 1.7490191 4.9160748
26.908064 3.1517508 4.4278407
25.921146 1.7440723 2.2710848
26.856426 3.1402936 1.6815423
25.864416 1.7400615 -0.32689348
26.787287 3.12923 -1.007098
25.813959 1.7306864 -2.9088645
26.720118 3.1120646 -3.7102256
25.751482 1.7329873 -5.5390272
26.642946 3.1029904 -6.4711213
25.744175 1.7293549 -8.2880239
26.589922 3.1109836 -9.3380327
26.005617 1.5953126 10.578542
26.864956 2.9739954 10.200361
25.961096 1.5984807 7.6502705
26.769012 2.9603286 7.1987114
25.887291 1.5829195 4.8955898
26.789467 2.971344 4.405242
25.837074 1.5792272 2.2628269
26.698719 2.955909 1.6705006
25.820087 1.5779957 -0.32620469
26.639534 2.9463978 -1.0008444
25.775286 1.5692909 -2.9033668
26.539106 2.9260471 -3.6825287
25.747723 1.5740961 -5.5360365
26.52483 2.9243877 -6.4379539
25.695501 1.5677714 -8.2691011
26.479078 2.9334335 -9.2926102
25.943911 1.4317966 10.549669
26.724209 2.7925375 10.140224
25.926464 1.4367207 7.6373239
26.670034 2.7838469 7.1673656
25.828674 1.4203175 4.8827643
26.587486 2.7839057 4.3691373
25.837517 1.4201827 2.2620599
26.510618 2.7705324 1.6576366
25.787434 1.417237 -0.3256762
26.522659 2.7688491 -0.99579638
25.738781 1.408609 -2.8982267
26.4007 2.7469344 -3.6609159
25.671188 1.4113693 -5.5176153
26.344431 2.7409947 -6.3899655
29.095209 4.502758 -7.8772211
25.651619 1.407169 -8.2520466
26.314524 2.7518671 -9.2287607
25.904602 1.2702464 10.530317
26.576309 2.6123354 10.077833
25.809557 1.2714425 7.6004443
26.503342 2.6021559 7.1181431
25.75808 1.2579595 4.8678679
26.435705 2.6041305 4.3414874
25.79439 1.259113 2.2575653
26.390064 2.594341 1.6490724
25.720953 1.255336 -0.3247332
26.322247 2.5847578 -0.9876579
28.484453 4.2223082 -1.7820624
25.657274 1.2462968 -2.8881333
26.265953 2.5701053 -3.6399758
25.648354 1.2523133 -5.510952
26.222061 2.565726 -6.3563457
25.568367 1.2452953 -8.2226505
26.166557 2.5741835 -9.1711559
27.958759 4.1361346 -10.658077
25.862581 1.1091594 10.510272
26.397301 2.4312994 10.004107
28.481277 4.0389571 10.043684
25.780712 1.111495 7.5897985
26.35956 2.4248362 7.075398
28.308167 4.026145 6.8829374
25.733433 1.0985262 4.8618445
26.352188 2.4327359 4.3252382
25.717209 1.0972161 2.2501788
26.255789 2.418576 1.6397234
28.049309 3.9839783 1.0579562
25.678631 1.0953784 -0.32410792
26.237049 2.4139469 -0.98388684
27.90251 3.9612324 -1.744101
25.646534 1.0880837 -2.8861187
26.161781 2.3979437 -3.6234324
27.827765 3.9535398 -4.5885696
25.609426 1.0929456 -5.5010433
26.136866 2.395576 -6.3320122
27.691927 3.9382586 -7.4836483
25.565857 1.087976 -8.2195425
26.07288 2.4035337 -9.1329813
25.806999 0.94817436 10.485122
26.310944 2.2606242 9.9659348
27.927362 3.7857494 9.8399744
25.738487 0.95149142 7.5755062
26.283827 2.2553184 7.0512223
27.877033 3.7904649 6.7723269
25.691229 0.93883741 4.8526912
26.207497 2.2572908 4.2991357
27.732494 3.7765288 3.8375478
25.686783 0.93805838 2.2469704
26.189888 2.2505322 1.6347147
27.606703 3.7484512 1.040375
25.582729 0.93406743 -0.32281905
26.133152 2.2427685 -0.97945613
27.454353 3.7259035 -1.7146268
25.571104 0.92773771 -2.8769355
26.070854 2.2283857 -3.6088772
27.388283 3.7198048 -4.5122542
25.517157 0.93219036 -5.4798913
26.010878 2.2231753 -6.2980661
27.3234 3.7149498 -7.3777561
25.507685 0.92874253 -8.1988525
25.949217 2.2316473 -9.0846968
27.284225 3.6947939 -10.382874
25.754227 0.78802985 10.461519
26.260063 2.094017 9.9416084
27.555803 3.5633357 9.7011719
25.704294 0.79232621 7.563869
26.211227 2.0871582 7.0281777
27.483692 3.5653675 6.6713305
25.660145 0.78007585 4.8458247
26.1567 2.0913126 4.2886171
27.405239 3.5608304 3.7891684
25.608482 0.77789092 2.2396615
26.085436 2.0803993 1.6273676
27.317139 3.5385678 1.028625
25.622349 0.77812082 -0.32325265
26.047163 2.0744708 -0.97573787
27.242012 3.5269918 -1.6999817
25.54339 0.76982653 -2.8732316
25.966408 2.0590482 -3.5926025
27.18973 3.5230653 -4.4758964
25.503677 0.77503359 -5.4758716
25.967775 2.0590732 -6.284452
27.049566 3.5088153 -7.2978649
25.429001 0.76967341 -8.1718903
25.918993 2.0689173 -9.0695
26.977034 3.4847674 -10.257644
25.745712 0.62967551 10.456295
26.151173 1.9239289 9.8957291
27.290079 3.3588572 9.6001863
25.723879 0.63496804 7.5683432
26.097036 1.9169972 6.9942732
25.638615 0.62198675 4.8409467
26.036961 1.9210341 4.2669721
27.101028 3.3523388 3.7441921
25.61985 0.62091708 2.2402802
26.025373 1.9149804 1.622857
27.096922 3.3411193 1.0195415
25.59531 0.62013137 -0.32285744
25.954021 1.9068671 -0.97179216
26.970524 3.3237114 -1.6817356
25.533854 0.61275011 -2.8716822
25.906301 1.8943993 -3.5826106
26.909872 3.3190455 -4.4263911
25.524315 0.61892819 -5.4793844
25.8692 1.8916032 -6.257669
26.852348 3.3158271 -7.2390308
25.519428 0.61570883 -8.1995811
25.830954 1.9024591 -9.0344391
26.761932 3.2901626 -10.167986
25.72797 0.47130394 10.447718
26.057606 1.7563628 9.8560591
27.058735 3.1619627 9.5117979
25.690025 0.47642627 7.5573812
26.006847 1.7500055 6.9694872
26.971949 3.1629329 6.5385337
25.655592 0.46490669 4.8457432
25.961277 1.7553567 4.2495818
26.936005 3.1642447 3.7373126
25.608385 0.46343729 2.2389872
25.915352 1.7470794 1.6152974
26.853533 3.1439571 1.009639
25.591539 0.46294156 -0.32276797
25.847445 1.7343143 -0.97127718
26.762974 3.1315482 -1.6675644
25.525331 0.45585504 -2.8703551
25.801378 1.736055 -3.5666451
26.73633 3.131217 -4.3946023
25.499353 0.46179023 -5.4733152
25.800392 1.7274855 -6.2383432
26.681971 3.1286969 -7.1877885
25.455557 0.45790467 -8.1780024
25.774082 1.7393346 -9.0232859
26.60248 3.104984 -10.097913
25.684193 0.31286865 10.428965
25.994066 1.591922 9.828146
26.835825 2.969121 9.4268589
25.646557 0.31821665 7.5438771
25.944315 1.5859485 6.9499907
26.803007 2.9765165 6.4930286
25.614483 0.30695716 4.837532
25.88567 1.5907502 4.2355289
26.739922 2.9749899 3.7075038
25.589487 0.30604419 2.2371285
25.877419 1.5850825 1.6122965
26.711008 2.9612443 1.0035783
25.529127 0.30513185 -0.32195112
25.782454 1.5711056 -0.96845454
26.619331 2.9492867 -1.6574554
25.461533 0.29845095 -2.862921
25.759258 1.5745124 -3.5594206
26.573456 2.9469693 -4.3647766
25.441818 0.30460337 -5.4604611
25.747156 1.5652933 -6.2230315
26.512306 2.9440048 -7.1370826
25.401896 0.30104011 -8.1600151
25.679062 1.5747036 -8.9864683
26.419718 2.9194503 -10.02155
25.70805 0.15540303 10.438068
25.920618 1.4278384 9.7968788
26.723335 2.7908061 9.3811502
25.642487 0.16081157 7.5422473
25.866415 1.4219369 6.9266553
26.634727 2.7924953 6.4479909
25.601938 0.1497023 4.8348985
25.854332 1.4296433 4.2288861
26.612324 2.7955921 3.6873646
25.586161 0.14899676 2.2367156
25.795889 1.4212708 1.6066432
26.530308 2.7765329 0.99613023
25.531326 0.14848706 -0.32196131
25.770109 1.4117001 -0.96764725
26.45969 2.7673616 -1.6464272
25.501425 0.14243157 -2.8672545
25.729641 1.4142944 -3.5540619
26.435251 2.7675526 -4.3392048
25.434923 0.14844121 -5.458683
25.693909 1.4038746 -6.207963
26.364889 2.7639768 -7.0926991
25.399563 0.1451502 -8.1588268
25.635813 1.4142181 -8.9681282
26.262268 2.7390494 -9.9552641
28.707901 4.4441805 -11.800786
25.676792 -0.002338645 10.425186
25.901196 1.2674104 9.7864141
26.533113 2.606463 9.3085852
25.638634 0.0034686145 7.540966
25.861725 1.2625656 6.9231944
26.496225 2.6137118 6.4104576
25.591978 -0.0073880632 4.8329349
25.784283 1.2671275 4.2160773
26.413992 2.6109982 3.6575954
25.552713 -0.0079891868 2.2337539
25.733162 1.2594905 1.6022248
26.391233 2.5983729 0.99029112
28.678377 4.2487121 0.36708552
25.526375 -0.0081712995 -0.32189345
25.711813 1.2503188 -0.96515203
26.335941 2.5911586 -1.6377069
28.389339 4.2014256 -2.5037313
25.502831 -0.014045475 -2.867368
25.657499 1.252472 -3.5429688
26.276686 2.5880563 -4.3104897
28.202415 4.1831417 -5.380332
25.444288 -0.0076300292 -5.4606004
25.643566 1.2433583 -6.1938396
26.200615 2.5843258 -7.0441074
25.41317 -0.010706876 -8.163065
25.557724 1.252664 -8.9379539
26.15243 2.5654807 -9.9074736
27.973799 4.1549425 -11.488326
25.681696 -0.15992206 10.427379
25.834764 1.1053058 9.7585688
26.411695 2.4310081 9.2605801
28.445992 4.0376782 9.2409277
25.651155 -0.15392506 7.5447845
25.792948 1.1006126 6.9028449
26.387659 2.4396107 6.3804493
28.313768 4.0331111 6.1398888
25.611525 -0.16454631 4.8367257
25.741667 1.1067485 4.2079191
26.289991 2.4359477 3.6382864
28.095497 3.9790127 3.1875958
25.566099 -0.16486728 2.2349703
25.713207 1.100407 1.6005319
26.267263 2.4235272 0.9850629
27.94702 3.9652741 0.35740593
25.533125 -0.16484505 -0.32198527
25.661753 1.0900986 -0.96300375
26.222128 2.4176023 -1.6296761
27.851696 3.9473753 -2.4541328
25.527763 -0.17069815 -2.870235
25.602404 1.0923591 -3.5343683
26.153265 2.4139647 -4.2877331
27.717804 3.9376009 -5.2831717
25.48671 -0.16402951 -5.4698172
25.585957 1.0832473 -6.1782031
26.090576 2.4119205 -7.0104122
27.658487 3.9287236 -8.2190456
25.380568 -0.16642874 -8.1527672
25.545153 1.0949736 -8.9310398
26.084269 2.3972979 -9.8758926
25.659864 -0.31724718 10.419109
25.792625 0.94499135 9.7402773
26.301407 2.2581959 9.2168779
27.908695 3.7868674 9.0586634
25.640793 -0.31120625 7.5421562
25.701281 0.93875223 6.8766413
26.265396 2.2658577 6.3474054
27.834896 3.7907906 6.0308871
25.630428 -0.32194877 4.8405776
25.686186 0.94650298 4.1978216
26.217337 2.2670574 3.6262383
27.629259 3.7401989 3.132036
25.55364 -0.3215968 2.2340117
25.672274 0.9408831 1.5975945
26.157934 2.2516603 0.98042631
27.52536 3.7333009 0.35171387
25.568825 -0.3219786 -0.3224543
25.619955 0.93087637 -0.96120268
26.111769 2.245935 -1.6219305
27.48683 3.7237663 -2.4199238
25.535904 -0.32745436 -2.8713222
25.5257 0.93221658 -3.5229239
26.069685 2.2450151 -4.2716913
27.390608 3.7198079 -5.2163572
25.442482 -0.31987256 -5.4606438
25.512741 0.92336154 -6.1590395
26.022087 2.2446444 -6.9881773
27.3169 3.7093537 -8.1106234
25.430429 -0.32280982 -8.1692667
25.519972 0.93705708 -8.9200573
25.97468 2.2265899 -9.8290434
27.216732 3.7017317 -11.157916
25.706352 -0.47559223 10.438974
25.754198 0.78537905 9.7237625
26.226637 2.0897486 9.1860104
27.511971 3.5612581 8.9226332
25.685558 -0.46939111 7.5560298
25.692581 0.78060991 6.8729024
26.183077 2.0969865 6.3242836
27.496359 3.5729825 5.9526749
25.661444 -0.47983399 4.8469
25.674974 0.78836995 4.1951199
26.128014 2.0978987 3.6120353
27.352228 3.5319297 3.0981169
25.591255 -0.47913519 2.2375152
25.639816 0.78219175 1.5952461
26.086052 2.0843079 0.97723424
27.270018 3.528403 0.34816793
25.549847 -0.47855043 -0.32224593
25.592237 0.77266306 -0.9599669
26.032101 2.078253 -1.6161593
27.175705 3.5119469 -2.3905904
25.513735 -0.48376039 -2.8691092
25.545671 0.77602386 -3.5249567
25.980812 2.0768461 -4.2549605
27.167072 3.51982 -5.1695757
25.498117 -0.47706532 -5.4731102
25.529984 0.76716322 -6.1619501
25.948759 2.0779977 -6.9649301
27.065119 3.5061712 -8.0293283
25.454849 -0.47934809 -8.1779013
25.457388 0.77837723 -8.8963451
25.832102 2.0547814 -9.7701359
26.999065 3.5035365 -11.059658
25.722582 -0.63379824 10.446948
25.725128 0.62652594 9.7111521
26.119503 1.9200041 9.144187
27.291777 3.3626223 8.8443613
25.717844 -0.62785619 7.5665169
25.675032 0.62241864 6.8670573
26.081114 1.9278392 6.2966795
25.664604 -0.63744426 4.8481445
25.689619 0.63106912 4.1968007
26.032974 1.9295789 3.5971923
27.081125 3.3281164 3.0650392
25.611048 -0.63672823 2.2395451
25.59627 0.62368774 1.5922686
25.963152 1.9142394 0.97217184
27.058861 3.3324032 0.34520444
25.570669 -0.63591522 -0.3225517
25.58939 0.61544657 -0.95970035
25.938745 1.9107038 -1.6096053
26.949093 3.3146734 -2.3688221
25.558216 -0.64150363 -2.8744996
25.542288 0.61907816 -3.5238993
25.902376 1.9107019 -4.2401152
26.875515 3.3145027 -5.1101298
25.488791 -0.63336271 -5.471839
25.496405 0.60959578 -6.1528268
25.831743 1.9091853 -6.9302468
26.816231 3.3067563 -7.9493222
25.460165 -0.63574523 -8.1807089
25.460264 0.6221242 -8.8958483
25.790592 1.8923048 -9.7498617
26.738913 3.3030779 -10.944584
25.760782 -0.79292756 10.464241
25.715866 0.46843782 9.7063885
26.021767 1.75236 9.1060352
27.025524 3.1615982 8.751626
25.699026 -0.78520375 7.5622568
25.675791 0.46482125 6.8663683
25.99651 1.7612722 6.2735262
26.945154 3.1656253 5.8244958
25.651423 -0.79463506 4.8464842
25.639021 0.47243395 4.1879821
25.964289 1.7643687 3.5861375
26.866426 3.134515 3.0385053
25.643068 -0.79499149 2.2427294
25.554991 0.46580684 1.5894929
25.879894 1.7485111 0.96863437
26.819166 3.1359515 0.34189463
25.609898 -0.79415435 -0.32310191
25.562454 0.45787999 -0.95856673
25.847435 1.7445891 -1.6032448
26.752003 3.123924 -2.3497689
25.564081 -0.79863513 -2.8756564
