# .PCD v0.7 - Point Cloud Data file format
VERSION 0.7
FIELDS x y z
SIZE 4 4 4
TYPE F F F
COUNT 1 1 1
WIDTH 1560
HEIGHT 1
VIEWPOINT 0 0 0 1 0 0 0
POINTS 1560
DATA ascii
16.246965 -42.868034 6.3000689
16.091877 -37.520531 8.7596884
16.783632 -53.001534 9.071043
16.175823 -43.483585 6.3758259
17.17486 -65.286949 5.8868999
16.321585 -38.710087 9.0138569
17.019855 -54.91605 9.3806572
16.46014 -39.717709 9.2247953
16.110542 -44.990067 6.5672302
16.785902 -67.146919 6.035583
16.570601 -40.688351 9.4264431
16.688635 -68.542633 6.1517186
16.677179 -41.68037 9.6323786
16.564611 -69.896385 6.2639775
16.505737 -71.603127 6.4077353
15.972866 -48.309517 6.9924293
16.451897 -73.424973 6.561614
15.957108 -49.274212 7.1177554
16.405619 -75.383476 6.7275133
15.996903 -51.546864 7.4171267
16.023464 -52.77422 7.5794425
17.186808 -48.023266 5.7425647
17.029604 -48.520393 5.7894063
16.870371 -49.096699 5.8448176
16.664558 -58.755032 8.4061689
16.710268 -49.619358 5.894722
16.845303 -60.811253 8.6854029
16.64711 -50.453217 5.9815364
17.136234 -63.370369 9.0357227
16.569277 -51.272491 6.0664978
16.488331 -52.112675 6.153821
16.413052 -53.003376 6.2469907
16.317692 -53.862862 6.3363695
16.285208 -54.968914 6.4546084
16.207607 -57.278603 6.7019572
16.166241 -58.500183 6.8331552
16.137516 -59.823593 6.9760394
16.189857 -61.516277 7.1617045
16.23399 -63.258438 7.3527913
16.469507 -65.851753 7.642333
16.766132 -68.829338 7.9758019
16.995522 -71.680923 8.2847986
16.265331 9.2154093 -6.0089097
16.035418 8.9556208 -5.9035611
15.877873 8.7402544 -5.8257055
15.825809 8.5854902 -5.7871652
15.716499 8.4017849 -5.7282333
15.652646 8.2445612 -5.6864147
16.30312 9.6229095 -6.6095128
15.557378 8.0728302 -5.6337032
16.11968 9.3817453 -6.5116835
15.531263 7.9387026 -5.6065011
15.920359 9.1354265 -6.408401
15.542584 7.8245792 -5.5931516
15.823565 8.9512739 -6.3472109
15.497269 7.6829419 -5.5597749
15.755108 8.7853804 -6.2980084
16.300182 7.9432535 -3.8905067
15.484865 7.5587845 -5.5385814
15.683234 8.6195774 -6.2480173
16.412771 10.097907 -7.2669878
16.064104 7.7065959 -3.8228014
15.462824 7.4308877 -5.5142856
15.619272 8.4600534 -6.2017379
16.204853 9.8334284 -7.1480784
15.911009 7.5134039 -3.775327
15.443771 7.3054271 -5.4914021
15.566438 8.3083067 -6.1604023
16.015482 9.5845566 -7.0384717
15.834095 7.3586044 -3.7462928
15.424697 7.1809154 -5.4688497
15.536844 8.1704206 -6.1287351
15.871728 9.3667402 -6.9499044
15.782716 7.2173033 -3.7320323
15.445699 7.0757055 -5.4643903
15.516809 8.0387344 -6.1012597
15.800605 9.19452 -6.8939276
15.70179 7.0641289 -3.7025774
16.37286 8.3538046 -4.4275246
15.450336 6.9634528 -5.4508123
15.49237 7.9058795 -6.0724607
15.731425 9.0255098 -6.8394527
15.625496 6.9189882 -3.6665595
16.127285 8.1011772 -4.3571925
15.486595 6.8626728 -5.4453201
15.467243 7.78442 -6.0499763
15.661975 8.8610535 -6.7868433
15.607941 6.796977 -3.6525846
15.911919 7.8710961 -4.2858763
15.477964 6.7455339 -5.4276299
15.444326 7.6544819 -6.0225277
15.581173 8.6895666 -6.7285981
16.142988 10.087737 -7.7259026
15.58217 6.6723127 -3.636904
15.862275 7.7257586 -4.2596564
15.53091 6.6555123 -5.4317732
15.422471 7.5261302 -5.9958844
15.541801 8.5430088 -6.6888323
15.94381 9.8277559 -7.6015744
16.487865 6.9354253 -2.0157056
15.571595 6.5550141 -3.6249797
15.798074 7.574914 -4.2298541
15.531975 6.5434589 -5.4180017
15.413276 7.4048939 -5.9745321
15.501209 8.3972588 -6.6490617
15.847381 9.6346369 -7.5272717
16.233484 6.7114906 -1.9795345
15.534673 6.4275484 -3.6071355
15.706714 7.4129224 -4.1931357
15.565992 6.4456158 -5.4159698
15.432907 7.2981153 -5.9646711
15.48494 8.265954 -6.6202025
15.7731 9.4574137 -7.4642854
15.982614 6.4932303 -1.944048
15.544249 6.320086 -3.6002865
15.628311 7.2590027 -4.1602359
16.274717 8.5693073 -4.9152384
15.570666 6.3359108 -5.4039674
15.440115 7.1859317 -5.9503031
15.478108 8.1406689 -6.5958028
15.705975 9.2866259 -7.4054136
15.914919 6.3522391 -1.9310365
15.529964 6.2035093 -3.588094
15.584194 7.1225872 -4.1367798
15.630488 6.2487426 -5.4113197
15.492878 7.0951619 -5.9537477
15.45459 8.0076284 -6.5647187
15.649675 9.1242075 -7.3523326
15.810156 6.1982331 -1.9136746
15.479174 6.0733547 -3.567682
15.565633 6.9989657 -4.1203756
15.891174 8.1198616 -4.7689471
15.702076 6.1658888 -5.422904
15.49676 6.9822307 -5.9386635
15.439577 7.8800592 -6.5376797
15.592156 8.9629354 -7.2993345
15.753491 6.0647655 -1.9022757
15.526332 5.9821858 -3.5700238
15.555647 6.880044 -4.1064801
15.815192 7.9590416 -4.7313995
15.763365 6.0785851 -5.4310865
15.529673 6.8827415 -5.9349799
15.416787 7.7495608 -6.5077724
15.506211 8.7873898 -7.2337227
15.673516 5.92381 -1.8881936
15.542948 5.8793163 -3.5654819
15.54647 6.7622399 -4.0930266
15.710649 7.7859864 -4.6857429
15.792033 5.9785938 -5.4282227
15.53258 6.7703114 -5.9201035
15.405806 7.625989 -6.4832621
15.509869 8.6641665 -7.2104917
15.620906 5.7946386 -1.8775371
16.166304 6.9271684 -2.4202859
15.552515 5.7741036 -3.5594826
15.524552 6.6397266 -4.0764532
15.681868 7.6522293 -4.6630664
16.396652 9.0189314 -5.5008817
15.86273 5.8943324 -5.4399891
15.558573 6.6683383 -5.9143038
15.420126 7.5156322 -6.4697595
15.46378 8.5143509 -7.1646428
15.609978 5.681869 -1.871998
15.980128 6.7316408 -2.3861847
15.572592 5.6730795 -3.5560431
15.497026 6.5157647 -4.058651
15.603891 7.4959893 -4.6261163
15.936186 5.810595 -5.4528503
15.604053 6.5747933 -5.9161453
15.446411 7.4114995 -6.461586
15.466589 8.3926382 -7.1419497
16.535877 5.9128265 -0.22037941
15.606094 5.5722508 -1.8673966
15.877664 6.5740585 -2.3648164
15.571678 5.5647597 -3.5479708
15.481203 6.397614 -4.0441494
15.552978 7.3544202 -4.5975566
15.93488 8.5119152 -5.3105173
16.00469 5.7245603 -5.4641681
15.667227 6.4885025 -5.9248905
15.460403 7.3018498 -6.4485755
15.435931 8.2538071 -7.1042728
16.26339 5.7030864 -0.21627744
15.556229 5.4470596 -1.8573955
15.811458 6.4332833 -2.3490322
15.610299 5.4707804 -3.5490551
15.507338 6.2972927 -4.0408063
15.545109 7.234324 -4.5820222
15.865707 8.3502445 -5.2702894
16.069641 5.6368175 -5.474432
15.693883 6.3870139 -5.9200387
15.491914 7.2008061 -6.4431682
15.429325 8.1289291 -7.0781431
16.028555 5.5105295 -0.21270086
15.569042 5.3445306 -1.8549747
15.736076 6.2903519 -2.3320549
15.607561 5.3625216 -3.540885
15.52944 6.1955414 -4.0365839
15.516618 7.1055646 -4.5606871
15.767117 8.1752071 -5.220778
16.222956 5.5790439 -5.5148954
15.768023 6.3046899 -5.9333014
15.506075 7.0920157 -6.4308376
15.411642 7.9991875 -7.0473814
15.934382 5.3690538 -0.21101001
15.52341 5.2226143 -1.8456852
15.662751 6.1498489 -2.3155522
15.642436 5.2674174 -3.5413978
15.52283 6.0827656 -4.0250883
15.547832 7.0047741 -4.5571427
15.662759 7.9995403 -5.1698732
16.346922 5.5097446 -5.5454402
15.825633 6.2153697 -5.940516
15.538053 6.9916787 -6.4261861
15.410846 7.8791194 -7.0247774
15.881891 5.2409267 -0.20587923
15.522151 5.1163111 -1.8387125
15.638738 6.0281634 -2.3057058
16.106169 7.1463242 -2.8769119
15.720821 5.1827617 -3.5516121
15.546226 5.9848113 -4.0126266
15.500069 6.8688111 -4.5306659
15.611665 7.8563862 -5.1455531
16.444326 5.4335017 -5.5667014
15.875461 6.1127892 -5.939321
15.571185 6.8896031 -6.4211082
15.405867 7.7543631 -7.0002618
15.782155 5.1008468 -0.20417677
15.499941 5.0037622 -1.8324097
15.615074 5.9092517 -2.2968278
15.95607 6.9628615 -2.8424158
15.756854 5.0876646 -3.5526328
15.579575 5.8881435 -4.0118327
15.488578 6.7503262 -4.5151153
15.536969 7.6996856 -5.1052651
16.610415 5.3755603 -5.6116538
15.927534 6.0208831 -5.94487
15.618734 6.7963538 -6.4233985
15.427909 7.6471739 -6.9888248
15.700599 4.9682961 -0.20272344
15.532256 4.9091649 -1.8326347
15.576603 5.7856793 -2.2859039
15.888549 6.8176498 -2.8228822
15.80019 4.994812 -3.5554266
15.575917 5.7777891 -4.0016866
15.461645 6.6259961 -4.4953275
15.525879 7.5758862 -5.0862508
16.89748 5.3541465 -5.6974297
16.034012 5.9489503 -5.9708753
15.678845 6.7083931 -6.4310708
15.435519 7.5333223 -6.9712019
15.640087 4.8437753 -0.20155457
16.208082 5.9102511 -0.64376652
15.569836 4.8161654 -1.8335474
15.544792 5.6655693 -2.2760913
15.797214 6.6639814 -2.7993374
15.857069 4.9059768 -3.5613844
15.602448 5.678968 -3.999475
15.48158 6.5223932 -4.4894028
15.508715 7.4500432 -5.0655565
16.175343 5.8887286 -6.0099368
15.711493 6.6086063 -6.4277077
15.47752 7.4365797 -6.9694309
15.630342 4.7358494 -0.20105073
15.982049 5.7169704 -0.63338345
15.57484 4.7132006 -1.8306963
15.536715 5.5548692 -2.2698753
15.728927 6.5217814 -2.7800932
16.478323 7.7981243 -3.4480169
15.907374 4.8147926 -3.5659804
15.617408 5.5761304 -3.9944639
15.507 6.4213524 -4.4852638
15.50924 7.3335147 -5.0509353
16.269445 5.8101788 -6.0315404
15.772608 6.5207024 -6.4362206
15.501798 7.3315115 -6.9599752
16.554173 4.9083076 1.5108166
15.594539 4.6207223 -0.20022172
15.920013 5.584836 -0.62955499
15.59614 4.6153779 -1.8298368
15.527485 5.4443488 -2.2636034
15.657998 6.3800621 -2.7605853
16.23575 7.5617504 -3.3874872
15.984916 4.7313914 -3.5767875
15.667091 5.4857187 -3.9984865
15.49741 6.3062654 -4.4712138
15.489549 7.2082462 -5.0300236
16.357363 5.7286544 -6.0509887
15.83851 6.4344397 -6.4468794
15.52738 7.2273612 -6.9514198
16.269611 4.7155256 1.4821774
15.573606 4.5107594 -0.19959384
15.824427 5.4424901 -0.6244427
15.612393 4.5161896 -1.828458
15.481355 5.3217316 -2.2520759
15.604565 6.2469215 -2.7443545
15.972184 7.3200703 -3.3230619
16.041729 4.6413469 -3.5830603
15.716468 5.39498 -4.0025644
15.534816 6.2106581 -4.4709268
15.447685 7.0737782 -5.0022397
15.911052 6.35045 -6.4604254
15.572859 7.1326027 -6.9520555
16.059402 4.5479708 1.4604576
15.579225 4.408957 -0.19931537
15.752223 5.3097954 -0.62029612
15.613673 4.4129219 -1.8254023
15.547251 5.2379365 -2.2569435
15.603738 6.1357746 -2.7375367
15.927059 7.1814656 -3.3044434
16.163595 4.5693145 -3.60395
15.790262 5.3122339 -4.0129814
15.549412 6.1061029 -4.4642601
15.454367 6.9624467 -4.9904757
16.758358 5.6391864 -6.1732602
15.956471 6.2553492 -6.463161
15.629434 7.0428195 -6.9578886
15.948999 4.4111772 1.4479285
15.554038 4.2989244 -0.19865194
15.68235 5.1793036 -0.61628157
16.373905 6.3067365 -1.091397
15.630083 4.3141718 -1.8241917
15.562444 5.1369452 -2.2545314
15.583285 6.0175929 -2.7274189
15.845671 7.0280943 -3.2785482
16.266491 4.4908009 -3.6206799
15.831702 5.2182593 -4.0152998
15.578822 6.0075846 -4.4620371
15.449841 6.8466806 -4.9753537
17.075788 5.6296015 -6.277349
16.092407 6.1949949 -6.5027022
15.655974 6.9395266 -6.9506173
15.867662 4.2840466 1.438131
15.52377 4.1882024 -0.19793344
15.641697 5.0596461 -0.61345237
16.110819 6.0921497 -1.0713493
15.666262 4.220881 -1.8253571
15.548676 5.0268121 -2.2480257
15.555123 5.8972983 -2.7161055
15.754864 6.8724437 -3.2509739
16.397236 4.4187975 -3.6436779
15.902262 5.1335578 -4.0251307
15.582664 5.8994918 -4.4526854
15.474414 6.7442808 -4.9698472
16.18379 6.1164222 -6.5243397
15.71568 6.8509274 -6.9583306
15.798381 4.1615086 1.4295104
15.547675 4.0924759 -0.19791432
15.607102 4.9428802 -0.61089462
15.947209 5.9186969 -1.0580344
15.72244 4.1327109 -1.8289137
15.569135 4.9281182 -2.2465694
15.522735 5.7763343 -2.7042105
15.699792 6.7340612 -3.2310228
16.519888 4.3433022 -3.664942
15.940075 5.0379772 -4.0268011
15.615812 5.802743 -4.4518995
15.500761 6.6428857 -4.9651246
16.307758 6.0491824 -6.5592299
15.768456 6.7590985 -6.9632034
15.722711 4.0385733 1.4203943
15.550415 3.9913332 -0.19763371
15.597789 4.8348269 -0.60935742
15.867069 5.7784338 -1.0503453
15.781898 4.0449781 -1.8329083
15.597968 4.8321509 -2.2464094
15.509491 5.6633091 -2.6957989
15.622974 6.5879116 -3.2068343
16.747816 4.2935371 -3.7095935
16.000921 4.9494276 -4.0344248
15.661506 5.7106028 -4.4548531
15.523953 6.5403719 -4.9596057
16.41658 5.9752159 -6.5881281
15.827637 6.669805 -6.9711332
15.668439 3.9223096 1.4132906
15.529455 3.8845468 -0.19706069
15.564008 4.7198782 -0.60689485
15.794668 5.6425419 -1.043241
15.845043 3.9577134 -1.8373871
15.58002 4.7220154 -2.2396095
15.509633 5.5557446 -2.6898472
15.613276 6.4712744 -3.1966324
16.114569 4.8764472 -4.0554585
15.750735 5.6338863 -4.4703164
15.532033 6.4318447 -4.9494853
16.532774 5.9028788 -6.6200976
15.895982 6.5840435 -6.9833097
15.318517 3.7316537 6.3995738
21.929556 5.3549256 6.651361
22.165785 5.4044914 4.3088408
15.614763 3.8072126 1.4063154
15.564714 3.7920415 -0.19720913
15.556052 4.6134291 -0.60546941
15.729393 5.5106273 -1.0366768
15.902308 3.8685114 -1.8412403
15.599463 4.6235914 -2.2382843
15.51169 5.4493251 -2.6843545
15.586944 6.3485737 -3.1832061
16.222485 4.8006477 -4.0751266
15.801954 5.5430808 -4.4751158
15.531311 6.3201861 -4.9368038
16.803938 5.883697 -6.7140956
15.946596 6.4906635 -6.9879174
13.816787 3.2761493 5.7636938
21.767206 5.1739664 6.5923667
22.078424 5.2398787 4.2855282
15.619305 3.7069342 1.4046495
16.426964 4.7596817 1.0652032
15.570199 3.6923194 -0.19712694
15.532395 4.502912 -0.6009177
15.640266 5.3718867 -1.030567
16.309299 6.5154524 -1.5339611
15.937984 3.7737617 -1.8419578
15.651091 4.5346112 -2.241339
15.540853 5.3526731 -2.6836669
15.554588 6.2243958 -3.1687388
16.351694 4.7299614 -4.1002164
15.840728 5.4477568 -4.4791389
15.577257 6.2277503 -4.9391685
17.078856 5.862565 -6.8094397
15.987173 6.3931155 -6.9883776
13.607709 3.1385107 5.6683359
21.635477 5.0026031 6.5430512
15.602039 3.6018572 1.4010829
16.174549 4.5791559 1.0469936
15.602961 3.5991113 -0.1972584
15.511971 4.3939934 -0.59907311
15.628492 5.260859 -1.0276449
16.05229 6.298842 -1.5061246
15.985317 3.6815343 -1.8447826
15.703015 4.4453988 -2.2448268
15.537938 5.2452426 -2.6775553
15.558515 6.1154842 -3.1618347
15.908176 5.3620253 -4.4888229
15.592275 6.1230593 -4.9319248
16.111591 6.3284798 -7.0256567
13.395895 3.0032101 5.5753717
16.144861 3.6229746 3.1285429
15.587173 3.4978271 1.3977941
16.10181 4.4600806 1.0445219
15.637232 3.506104 -0.19259621
15.505561 4.2895799 -0.60032982
15.610101 5.1482511 -1.0199283
15.935856 6.1405869 -1.4910717
16.082737 3.6001992 -1.8538963
15.739666 4.3516364 -2.2462065
15.567071 5.1488929 -2.6770809
15.530869 5.9948621 -3.1486819
16.575413 4.5750132 -4.1419239
15.976791 5.2762074 -4.4963593
15.624274 6.0252366 -4.9302597
16.21483 6.2544627 -7.0538077
13.228698 2.8805926 5.4983249
16.322578 3.5637119 4.9227147
16.002274 3.4879849 3.0967066
15.542562 3.3877826 1.3919033
15.704906 4.2465572 1.0170653
16.430519 5.3147984 0.65123904
15.628512 3.4035699 -0.19222797
15.556572 4.2011051 -0.60129541
15.593791 5.0369949 -1.0168242
15.858316 5.999217 -1.4803442
16.236351 3.5301116 -1.8690717
15.794468 4.2626419 -2.2502522
15.575304 5.045805 -2.6731222
15.517323 5.8804908 -3.138561
16.862825 4.5431786 -4.2066984
16.018488 5.1811881 -4.4990621
15.678605 5.9359388 -4.9358172
16.326509 6.1827278 -7.0857539
13.047252 2.7573402 5.4157753
15.913525 3.3664927 3.0754771
15.537678 3.2869825 1.3896335
15.651889 4.1293311 1.0119718
16.164614 5.1194386 0.6394425
15.667992 3.3116035 -0.19246
15.566362 4.101438 -0.60068983
15.56331 4.9218974 -1.0128483
15.766155 5.8540225 -1.4683605
16.325832 3.4447956 -1.876904
15.851222 4.1737843 -2.2546473
15.58741 4.9442549 -2.6699426
15.507695 5.7682743 -3.129396
16.1474 5.1136556 -4.526371
15.746642 5.8514829 -4.9458399
16.458725 6.11759 -7.1267104
12.906694 2.6450098 5.3505931
15.833837 3.2539659 4.7629132
15.860003 3.2536299 3.0612175
15.523689 3.1846361 1.3866087
15.604215 4.0145068 1.0072778
15.994462 4.9577732 0.63149631
15.726835 3.2233605 -0.19293626
15.58004 4.0029707 -0.60025847
15.539906 4.8098097 -1.0093855
15.703397 5.7213287 -1.4592185
16.446724 3.3650303 -1.888393
15.902714 4.0831661 -2.2583649
15.636663 4.8544827 -2.6732266
15.534337 5.6699247 -3.1276927
16.251635 5.0371571 -4.5468407
15.803788 5.7626071 -4.9525895
16.540007 6.0325541 -7.1457429
12.772389 2.5359261 5.2883658
15.636794 3.1135988 4.6978068
15.778668 3.1361785 3.0417473
15.544577 3.0896502 1.3867549
15.605229 3.9128375 1.0057747
15.917104 4.8269472 0.62726086
15.787432 3.1349657 -0.19343999
15.592449 3.9043283 -0.59980226
15.531821 4.7030725 -1.0069669
15.651814 5.5939898 -1.4512084
16.556479 3.2817757 -1.8986472
15.943041 3.989409 -2.2605731
15.662392 4.7573032 -2.6725845
15.537638 5.5633307 -3.1214254
16.372965 4.9648561 -4.572176
15.862183 5.6738739 -4.9598856
16.78079 6.0039701 -7.2337155
12.645384 2.4301567 5.2295074
15.453323 2.9786053 4.6371074
21.927509 5.3419037 6.0337353
15.691353 3.0188596 3.021287
16.304436 3.9764647 2.7443225
15.5741 2.9963014 1.3877224
15.583527 3.8059199 1.0028518
15.821527 4.6921515 0.62234807
15.604326 3.8057072 -0.59934962
15.516556 4.5947032 -1.0041306
15.597348 5.4668298 -1.4430211
16.864157 3.2353492 -1.9316177
16.00153 3.8998711 -2.2654305
15.71456 4.6680236 -2.6765482
15.553577 5.4616017 -3.1178365
16.504398 4.8943334 -4.6004062
15.924284 5.5861158 -4.9684925
17.02169 5.9726048 -7.3216262
15.527346 3.6880271 6.0183926
21.807873 5.1712151 5.991971
15.651246 2.9116702 3.0058284
16.052994 3.8109367 2.6932459
15.591856 2.9006217 1.3876926
15.560865 3.6993599 0.99991393
15.75887 4.5685592 0.61876905
16.113396 2.9946451 -0.19696884
15.623331 3.7089269 -0.59919417
15.516841 4.4914155 -1.0023466
15.586049 5.3557148 -1.4389082
17.165276 3.1840439 -1.9638331
16.131308 3.8267958 -2.2804368
15.764992 4.5779266 -2.6803033
15.560148 5.3568897 -3.1125059
16.675718 4.8340201 -4.6398044
15.978878 5.4953918 -4.9749117
12.432672 2.2314358 5.1286778
14.909539 3.4447815 5.7706299
15.155387 2.7287297 4.5373144
21.668215 4.9978704 5.9450603
15.654709 2.8130462 3.0031219
15.963213 3.6863027 2.6743381
15.584545 2.8004384 1.3854865
15.552593 3.5967159 0.99794543
15.685355 4.4430981 0.61480051
16.19277 2.906723 -0.19771737
15.645979 3.6130366 -0.5992012
15.553894 4.3988891 -1.0029777
15.586123 5.2490363 -1.4359146
16.239969 3.7474699 -2.2925041
15.808892 4.4856787 -2.6830368
15.58184 5.2576408 -3.1103332
16.972849 4.807457 -4.7141809
16.072756 5.417623 -4.9936962
12.338123 2.1364067 5.0853119
14.031301 3.1513052 5.4299541
14.946925 2.5966129 4.4700494
21.529604 4.8269625 5.8987927
15.629025 2.7095437 2.9991734
15.88425 3.5655501 2.6620979
15.607126 2.7057474 1.3859919
15.532823 3.4918792 0.99528331
15.943359 4.4106865 0.62384063
16.059319 5.2974949 0.21025059
16.314867 2.8254201 -0.19899277
15.701014 3.5244102 -0.60046941
15.546537 4.2939634 -1.0007855
15.522945 5.1219268 -1.4271719
16.35317 3.6680551 -2.3052635
15.873852 4.3990498 -2.68943
15.603053 5.1583781 -3.1081913
16.166121 5.3388557 -5.0124316
12.247801 2.0434432 5.0428214
13.775784 3.0052485 5.3238354
14.751792 2.4695647 4.4070783
21.430202 4.6667604 5.8636022
15.616102 2.6087077 2.9935653
15.825774 3.4505649 2.6486998
15.612337 2.608079 1.3850074
15.516904 3.3884151 0.99291241
15.861159 4.2833509 0.6195842
15.956105 5.1551065 0.20848125
16.409618 2.7382302 -0.19993976
15.739861 3.4318235 -0.60113841
15.552443 4.1930585 -0.99949056
15.535415 5.0205507 -1.4254593
16.46529 3.5872357 -2.3179224
15.907387 4.3034177 -2.690587
15.631281 5.0615292 -3.1075687
16.290215 5.2692032 -5.0407882
12.17874 1.9551904 5.0093532
13.610885 2.8819008 5.2531753
14.63142 2.3572137 4.3667145
16.235094 3.4312413 4.4363041
15.595314 2.5069723 2.9865751
15.750809 3.3331132 2.6326804
15.646993 2.5152798 1.3866864
15.544173 3.2945766 0.99334508
15.83781 4.1729493 0.61766022
15.875773 5.0217838 0.20702514
16.517607 2.6521819 -0.20608483
15.792658 3.3419602 -0.59981984
15.596841 4.1025395 -1.0050348
15.51687 4.9096107 -1.4215053
16.652277 3.5210886 -2.3411598
15.979066 4.2177606 -2.698283
15.673052 4.9690123 -3.1097534
16.397963 5.193131 -5.0641737
12.095315 1.8657428 4.9702368
13.432608 2.7581475 5.1777391
14.571955 2.2559898 4.3447537
15.982569 3.2755539 4.3617268
15.559669 2.4033978 2.9768691
15.66864 3.2154071 2.6155992
16.218857 4.1733918 2.3121316
15.679993 2.4219835 1.3882679
15.55321 3.1968997 0.99265033
15.819786 4.0645595 0.61597311
15.781091 4.885519 0.20539567
16.6453 2.5680199 -0.20747752
15.849945 3.2526045 -0.60122627
15.615602 4.0051928 -1.0046412
15.521452 4.8064895 -1.4191965
16.92539 3.4704809 -2.3765185
16.046766 4.1304774 -2.7053843
15.739553 4.884017 -3.1169431
16.521349 5.1208801 -5.0924797
12.028554 1.7799529 4.9382219
13.291115 2.6442087 5.1168485
14.266623 2.1191659 4.2497587
15.789699 3.1351976 4.3037601
15.549677 2.3042574 2.9721963
15.640019 3.1096511 2.6075871
15.995078 4.0113306 2.2766786
15.741393 2.3326671 1.3924106
15.564133 3.0997336 0.99211478
15.810832 3.959002 0.614667
15.741027 4.7674723 0.20448963
16.896582 2.5007424 -0.20527729
15.881298 3.1576149 -0.60421765
15.631786 3.9072778 -0.9997974
15.543989 4.7091427 -1.4180509
16.15243 4.0521636 -2.7189553
15.770074 4.7876072 -3.117111
16.799143 5.0942154 -5.1683736
11.960374 1.6949358 4.905869
13.170105 2.5362265 5.0641751
21.919395 5.3375769 7.8871455
14.10201 2.0063558 4.1969776
22.018045 5.3720603 5.4556317
15.571824 2.2099812 2.9737816
15.61965 3.0060914 2.6010668
15.946823 3.8953846 2.2663651
15.749455 2.2351909 1.3918843
15.613968 3.0101728 0.99409539
15.794137 3.8519902 0.61308753
15.647903 4.6346402 0.20290664
15.951051 3.0698626 -0.60614341
15.653626 3.8108416 -0.99967992
15.532557 4.6018171 -1.4144053
16.281195 3.9784415 -2.7364695
15.83304 4.7008142 -3.1237967
17.10774 5.0733824 -5.2536392
11.900355 1.6120082 4.8771024
13.026991 2.4258664 5.0033274
14.009136 1.9055188 4.1657791
15.578649 2.8950486 4.2362313
21.883091 5.1970787 5.4141889
15.554801 2.1102834 2.9680018
15.604574 2.904011 2.59554
15.851808 3.7692587 2.2495325
15.852217 2.1506331 1.3997736
15.616339 2.9113641 0.99309033
15.772292 3.7442808 0.61133629
15.656233 4.5328031 0.20265016
16.019838 2.9812829 -0.60805082
15.699959 3.7202289 -1.0011622
15.578329 4.5115871 -1.4160259
16.391474 3.8989651 -2.7509322
15.881024 4.6092181 -3.127625
11.86215 1.5327728 4.8574986
12.923101 2.3245678 4.9578547
13.891768 1.8028095 4.1275105
15.512623 2.7844181 4.213552
21.765657 5.0283074 5.3773994
15.585443 2.0171292 2.9714313
15.608374 2.8057411 2.5932598
15.775888 3.6490815 2.235539
15.859799 2.0526373 1.3993045
15.626916 2.81423 0.99264616
15.517665 3.5833972 0.60060328
15.607961 4.4152126 0.20167086
16.115841 2.8969538 -0.61100841
15.749111 3.6299613 -1.0028573
15.582578 4.4093676 -1.4139261
16.514614 3.8213449 -2.7676113
15.939018 4.5201979 -3.1335251
11.806372 1.4519701 4.8282771
12.836585 2.2282393 4.9122801
15.39581 3.4501219 5.5134177
13.807355 1.7057747 4.0992432
15.426291 2.6802619 4.1850896
21.612295 4.8533845 5.343462
15.607775 1.9227232 2.9670455
15.563766 2.6957796 2.5783057
15.730041 3.536937 2.2199917
15.947871 1.9646196 1.4059851
15.641203 2.7103419 0.98869908
15.566092 3.4941158 0.60163659
15.584815 4.3047147 0.20042947
28.947569 3.5600431 -0.3623634
16.212862 2.8118107 -0.61363071
15.796608 3.5402565 -1.0055085
15.584205 4.306725 -1.4097344
28.688169 3.5305147 -3.2502236
15.997829 4.4310031 -3.1396828
28.485859 3.493866 -6.1624508
28.405729 3.5054944 -9.2003098
11.761106 1.373201 4.8062291
12.725588 2.1286201 4.8647137
13.719436 1.6095107 4.0701327
15.337068 2.5679138 4.1565309
21.465391 4.6822314 5.2999382
15.620666 1.8270817 2.967309
15.541909 2.5938716 2.5719998
15.658447 3.4200404 2.2068844
16.093197 4.3377461 1.8788035
15.989497 1.8702222 1.4086167
15.683596 2.6186688 0.99034446
15.564089 3.3934906 0.600743
15.563337 4.1961732 0.19981836
28.279524 3.3018703 -0.3537406
16.325119 2.7282052 -0.61723423
15.859744 3.4523435 -1.00816
15.615574 4.2124348 -1.4102073
28.226002 3.2979527 -3.1955097
17.029188 3.7188323 -2.846694
16.101566 4.3535371 -3.1547396
28.044176 3.2651563 -6.0624518
27.969545 3.2775626 -9.05235
11.695605 1.2928627 4.7761297
12.636403 2.0340776 4.8257585
14.641438 3.0928783 5.2292814
13.653263 1.5168792 4.0476637
15.268896 2.4602821 4.1338868
16.758598 3.5479622 4.1323485
15.634751 1.7315515 2.9679105
15.536573 2.4950933 2.5685349
15.63817 3.3152127 2.2011182
15.963702 4.1979465 1.8606434
16.078398 1.7806854 1.4154592
15.73022 2.5273438 0.99229068
15.565681 3.29392 0.60001308
15.561177 4.0933361 0.19946441
27.922064 3.0865927 -0.34902576
16.447531 2.6450281 -0.6212371
15.897943 3.3586228 -1.0092591
15.625223 4.1123538 -1.4087734
27.792238 3.0745342 -3.1442075
16.206064 4.2752585 -3.1700144
27.736547 3.0569637 -5.9917822
27.67255 3.0707529 -8.9499607
11.657153 1.2162588 4.7572899
12.566171 1.9437464 4.794292
14.07048 2.8821962 5.0189495
13.598568 1.4263892 4.0287781
15.194338 2.3527102 4.109715
16.485069 3.3845043 4.0597048
15.665493 1.6377199 2.9717829
15.586738 2.4051392 2.5743399
15.610765 3.2094402 2.1944478
15.892694 4.0751801 1.8494179
16.180025 1.6915107 1.4234656
15.766843 2.434083 0.99364012
15.590101 3.1992724 0.60018635
15.527328 3.9827273 0.19871353
27.681332 2.88817 -0.34578857
16.573154 2.5610104 -0.6253767
15.955944 3.2687335 -1.0116489
15.656301 4.0179777 -1.409326
27.60235 2.8822031 -3.1206653
16.309187 4.1955981 -3.1850901
27.527122 2.8630393 -5.9426346
27.46978 2.877738 -8.8785019
11.612151 1.1395818 4.7359819
12.484098 1.8526905 4.758553
13.863922 2.7513576 4.9391551
13.542527 1.3365539 4.0096703
15.136153 2.2486887 4.0901685
16.0382 3.1903298 3.9447615
15.681297 1.5421622 2.9729297
15.571172 2.3050101 2.5693846
15.601838 3.1079516 2.1904709
15.814451 3.9518623 1.8374565
16.265089 1.5995747 1.4300587
15.828246 2.3442197 0.99658448
15.607817 3.103231 0.600124
15.531253 3.8823245 0.19845515
27.43737 2.6926363 -0.34252825
16.842976 2.4969895 -0.63496816
16.044081 3.1843395 -1.0159791
15.70522 3.9279792 -1.4115335
27.363523 2.6876404 -3.0917413
16.434563 4.1205049 -3.2045774
27.286161 2.6688464 -5.8869691
27.25523 2.6862967 -8.8036642
11.587633 1.0654323 4.723227
12.422049 1.7656527 4.7306828
13.700143 2.6315861 4.8749628
21.887983 5.3374243 7.2475066
13.456954 1.2447826 3.981997
15.016012 2.136754 4.0540843
15.863279 3.0544691 3.897054
22.084486 5.3859653 4.8727965
15.7181 1.4484612 2.9781659
15.576288 2.2081857 2.5679445
15.563947 3.0012345 2.1825244
15.736166 3.82987 1.8255957
16.388208 1.5102133 1.4400417
15.912382 2.2569911 1.0009911
15.62965 3.0079989 0.60024256
15.546424 3.7849185 0.19834854
27.244795 2.5050547 -0.33992583
17.148312 2.4348187 -0.64590371
16.151491 3.1027737 -1.0215559
15.76459 3.840203 -1.4147248
27.175125 2.5008824 -3.0686631
16.601885 4.0543499 -3.2322919
27.114988 2.4842355 -5.8466396
27.069462 2.5003767 -8.7385387
11.545686 0.99017245 4.7035637
12.342027 1.677085 4.6962008
13.592004 2.5244384 4.8308806
21.732386 5.1584134 7.1853695
13.406424 1.1571898 3.964869
14.923329 2.0302231 4.0256219
15.684427 2.9203413 3.8486419
21.946478 5.2098484 4.8352017
15.606369 1.3416457 2.9553804
15.611161 2.1154993 2.5715055
15.555621 2.9007475 2.1788199
15.673267 3.7128456 1.8156214
16.498301 1.418323 1.4489236
15.947361 2.1622176 1.0023381
15.638862 2.9103749 0.59989911
15.714103 3.7237568 0.20019257
27.119368 2.3258057 -0.33817649
16.25041 3.0185061 -1.0266216
15.836672 3.7549756 -1.4190992
27.064411 2.3233144 -3.0544939
16.860577 4.0080628 -3.277808
26.991415 2.3059983 -5.816834
26.918818 2.3199732 -8.6851492
11.516406 0.91651446 4.6892562
12.289084 1.5931571 4.6722484
13.459437 2.4144783 4.7784081
16.430851 3.7936928 5.424727
13.362758 1.0708598 3.9499376
14.843902 1.9267267 4.0009317
15.575119 2.8012195 3.8175304
21.806482 5.0354757 4.7974606
15.559756 1.241509 2.9450555
15.630567 2.0205398 2.5726116
15.539537 2.7991948 2.1741204
15.64846 3.6057091 1.8101507
16.683496 1.3311719 1.4644431
15.994305 2.0687203 1.0044719
15.699575 2.8221185 0.60155255
15.805246 3.6430769 0.20106512
26.940382 2.144021 -0.33577418
16.352188 2.9337306 -1.0318948
15.86961 3.6600845 -1.4200115
26.916643 2.1443393 -3.0362749
26.83379 2.1267645 -5.7799435
26.769648 2.141726 -8.632618
29.036562 3.7444396 -10.22134
11.501647 0.84435344 4.6810484
12.232024 1.5095031 4.6469455
13.349439 2.3102906 4.7342343
16.051006 3.6023984 5.2919216
13.329203 0.9858979 3.9381566
14.755773 1.8232943 3.9740877
15.499569 2.689558 3.7948964
21.72262 4.8759117 4.7723384
15.601963 1.1485807 2.9516544
15.636537 1.9238397 2.5716026
15.552897 2.7031813 2.1736281
15.631298 3.5008912 1.8056467
16.989059 1.2506955 1.4905632
16.083786 1.9800323 1.0093093
15.748445 2.7312577 0.60277152
15.809113 3.5419538 0.20083407
26.865107 1.9722226 -0.33467883
28.881998 3.5598183 -1.0852093
16.495148 2.8550215 -1.0397911
15.911886 3.5671515 -1.4218091
26.809896 1.9703665 -3.0228126
28.656528 3.52738 -3.9767253
26.740175 1.954317 -5.7570877
26.719654 1.972806 -8.6124306
28.329268 3.4766507 -9.9646645
11.488476 0.77254522 4.6736712
12.174661 1.4266402 4.6217403
13.243998 2.2084322 4.6919465
15.778296 3.4396405 5.1949544
13.288905 0.90096772 3.9245431
14.64218 1.7181113 3.9405811
15.445813 2.5827045 3.7777836
15.594646 1.0518782 2.9489937
15.674807 1.8309852 2.5760005
15.534492 2.6018875 2.1687837
15.608506 3.3953466 1.8005733
21.104723 1.4235396 1.8508564
16.199457 1.8934424 1.01582
15.804976 2.6412723 0.6043036
15.815897 3.4416962 0.20064819
26.775229 1.8005209 -0.33341524
28.330187 3.3154638 -1.0636911
16.641565 2.7753038 -1.0479276
15.987074 3.4811218 -1.426592
26.724487 1.7992965 -3.0118814
28.159164 3.2908885 -3.9048293
26.638885 1.7826583 -5.7328172
27.965887 3.2560859 -6.7849898
26.612074 1.8007555 -8.5740318
27.920532 3.2527196 -9.8136883
11.450325 0.69943202 4.6563172
12.126082 1.3455746 4.6000781
13.154435 2.1106226 4.6555419
15.54775 3.2895803 5.1123056
13.248746 0.81661087 3.9111297
14.573155 1.6194248 3.9192562
15.389979 2.4763949 3.7603405
16.218105 3.4318652 3.5535069
15.627667 0.95781761 2.954071
15.692704 1.7355415 2.577143
15.574527 2.5104477 2.1721816
15.595993 3.2925327 1.7967656
21.10169 1.2933197 1.8498597
16.303593 1.8042809 1.0216364
15.853268 2.5494525 0.60554045
15.843118 3.3459384 0.20072928
26.633287 1.6268828 -0.33151722
27.869602 3.0883365 -1.0456667
16.948338 2.7196856 -1.066174
16.068859 3.3957946 -1.4320037
26.613251 1.6278359 -2.9981627
27.816952 3.0780027 -3.8546832
26.574024 1.6145967 -5.716619
27.717901 3.0549533 -6.7201505
26.534225 1.6319963 -8.5455637
27.632664 3.0474505 -9.7057505
11.442354 0.62849927 4.6514206
12.085334 1.2660352 4.5815868
13.071552 2.0151331 4.6217451
13.20742 0.73274583 3.8975296
14.531058 1.5245448 3.9053459
15.354226 2.3740845 3.7479746
16.032639 3.2899711 3.5083807
15.669138 0.86388868 2.9608526
15.735278 1.6425836 2.5824308
15.578706 2.4131436 2.1706586
15.573108 3.1880152 1.7918416
21.087212 1.162604 1.8479301
16.418411 1.7150795 1.0281526
15.894114 2.4560714 0.60651368
15.850868 3.2461078 0.20057134
26.565233 1.4591745 -0.33055243
27.691656 2.8967319 -1.0383037
16.180052 3.3157127 -1.4400728
26.527256 1.4592569 -2.9874098
27.543818 2.8768179 -3.8143163
26.473305 1.445498 -5.6929369
27.471285 2.857276 -6.655983
26.400459 1.4612241 -8.4994354
27.399872 2.8517218 -9.6176577
11.38623 0.55536342 4.6271324
12.023359 1.1850058 4.5552497
12.961035 1.9167533 4.5784245
14.980039 2.9778905 4.9132481
13.161291 0.64920795 3.8826683
14.24636 1.4063544 3.8264396
15.293797 2.2687457 3.7297556
15.958035 3.1727483 3.4877293
15.702551 0.76911968 2.9662185
15.785183 1.5499426 2.5890117
15.625578 2.3223183 2.175163
15.561288 3.0862346 1.7882689
21.093876 1.0331898 1.8479238
16.53944 1.6251947 1.0350876
15.940707 2.3632183 0.60772681
15.896187 3.1538868 0.20089614
26.544067 1.2947011 -0.33018398
27.398092 2.696178 -1.0266569
16.284367 3.233103 -1.4475641
26.461424 1.2928318 -2.9790463
27.313412 2.6834383 -3.7800579
26.447571 1.2813812 -5.685605
27.290392 2.6693044 -6.6080618
26.382519 1.2979072 -8.4909353
27.215391 2.6638269 -9.5469856
11.382818 0.48520681 4.6244493
12.004775 1.1088425 4.5455456
12.868523 1.8224573 4.5417099
13.145135 0.56758064 3.8768015
14.134886 1.307826 3.7942717
15.285671 2.1717703 3.7244537
15.892671 3.0585043 3.4692767
15.72634 0.67358565 2.9698756
15.856424 1.458764 2.5991793
15.620343 2.223666 2.1724942
15.516453 2.9785092 1.780983
21.080748 0.90292388 1.8462535
16.797323 1.5465339 1.0506132
16.009489 2.2731133 0.60980582
15.962543 3.0653739 0.20149323
26.445889 1.1273031 -0.32887051
27.23954 2.5119169 -1.020119
16.388914 3.149461 -1.4551125
26.421143 1.1284053 -2.9736762
27.237343 2.5073249 -3.7673302
26.379625 1.1158922 -5.6694198
27.14325 2.4868684 -6.5686145
26.383238 1.1357121 -8.4887648
27.040421 2.4792917 -9.480092
11.349653 0.41404337 4.6098571
11.96734 1.0313685 4.5288897
12.809012 1.7339265 4.5168662
14.545126 2.706327 4.7593508
13.141643 0.48666382 3.8748178
14.059705 1.2139105 3.7720201
15.251003 2.0714586 3.7128398
15.792293 2.9388151 3.4433634
15.775407 0.57873732 2.978415
15.871516 1.3619958 2.6002345
15.62901 2.1271422 2.1718433
15.536044 2.8835442 1.7811673
21.06649 0.77284622 1.8445549
17.094105 1.4681399 1.0685922
16.10804 2.1863623 0.61303717
16.006781 2.9721496 0.20181765
26.406382 0.96333754 -0.32829952
27.088451 2.3304508 -1.0139061
16.523008 3.0702245 -1.4653181
26.34878 0.96338624 -2.9648108
27.069046 2.324424 -3.7420092
26.317856 0.95154589 -5.6547832
26.959902 2.3033495 -6.5207014
26.280277 0.96976817 -8.4535637
26.900076 2.300071 -9.4257641
11.349066 0.34430698 4.6086731
11.91855 0.95352721 4.5081267
12.740045 1.6450511 4.4889021
14.114071 2.536623 4.6131244
13.10217 0.40471518 3.8623745
13.99233 1.1216421 3.7520273
15.226136 1.9730091 3.703769
15.717196 2.8251736 3.4231453
15.801306 0.48262191 2.9826894
15.939993 1.2693957 2.6101277
15.657292 2.0332203 2.1739988
15.575255 2.7920723 1.7836649
21.060472 0.64325351 1.8436476
21.284559 1.6965441 1.3298714
16.224739 2.1008973 0.6169762
15.820131 2.8371875 0.19924106
26.374184 0.80015182 -0.32783201
26.946053 2.1517231 -1.008063
16.735851 3.0036583 -1.4825312
26.332344 0.80103034 -2.9623523
26.886791 2.1426671 -3.7149267
26.298883 0.78931493 -5.64956
26.832153 2.126678 -6.4865251
26.219305 0.80645394 -8.4322004
26.777491 2.1241684 -9.3780661
11.33324 0.27423501 4.6014762
11.88522 0.87750214 4.4976621
12.68763 1.5591964 4.466979
13.970558 2.4224358 4.5612736
13.07693 0.32363421 3.8542762
13.960304 1.0329064 3.7386301
15.195142 1.8742653 3.6933625
15.659245 2.7156763 3.4159284
15.866647 0.38718736 2.9974489
15.980899 1.174021 2.615947
15.694154 1.9401618 2.1771111
15.575544 2.6935897 1.7817717
21.052841 0.513744 1.842669
21.265947 1.5638078 1.328084
16.334732 2.0133104 0.62067747
15.865153 2.7448926 0.19959222
26.318392 0.63870239 -0.33037207
26.840014 1.9796804 -0.99766201
29.061674 3.5764959 -1.8144659
17.046947 2.9527726 -1.5135021
26.321787 0.62457448 -2.9670422
26.802134 1.9682602 -3.6927629
28.668367 3.5429907 -4.7106342
26.242155 0.63392931 -5.6321244
26.728802 1.9495353 -6.4701929
28.462275 3.5080707 -7.6636829
26.20607 0.63601846 -8.4305325
26.666992 1.9655048 -9.3363733
28.29207 3.473738 -10.7506
11.309797 0.20424056 4.5913634
11.85514 0.80217475 4.4843316
12.61689 1.471976 4.4388099
13.854733 2.3148763 4.5187349
13.073784 0.24329861 3.8528364
13.89158 0.94215518 3.7186072
15.174472 1.7772601 3.6856184
15.660258 2.616976 3.4125822
15.881674 0.29006067 2.9998951
16.054424 1.0804254 2.6268475
15.764317 1.8507017 2.1852276
15.594859 2.5984828 1.7821237
21.060986 0.38465488 1.8431406
21.254597 1.4319088 1.3268015
16.429733 1.9227526 0.62382722
15.907337 2.6517682 0.19991444
26.318432 0.47714242 -0.33032963
26.76285 1.8089532 -0.99436247
28.495928 3.3295064 -1.7778344
26.288097 0.46240401 -2.9628692
26.666054 1.7938355 -3.6724284
26.265192 0.47325242 -5.6363392
26.631689 1.7782444 -6.4439225
28.006081 3.2775192 -7.5352926
26.207531 0.47517371 -8.4299059
26.616432 1.7976466 -9.3146343
27.864946 3.2478685 -10.580526
11.30049 0.13471775 4.587163
11.82132 0.72704881 4.4697676
12.576436 1.3890929 4.4214959
13.725403 2.2067864 4.4720535
13.079566 0.16313137 3.8541729
13.845689 0.85373032 3.7048507
15.137376 1.678826 3.6740372
15.647187 2.5162003 3.4063053
15.916579 0.1930124 3.0062079
16.154657 0.98763812 2.6422067
15.802803 1.7569883 2.1890268
15.638515 2.5072355 1.7853209
21.046885 0.25522503 1.8417349
21.212799 1.2983944 1.32367
16.552052 1.834187 0.62803245
15.962469 2.560394 0.20040609
26.302139 0.31542197 -0.33009461
26.627628 1.6357478 -0.9889468
28.03668 3.1015904 -1.7479621
26.26832 0.30084124 -2.9603765
26.603706 1.62573 -3.6623993
27.835876 3.0937998 -4.5672612
26.218489 0.31149977 -5.6258011
26.565779 1.610176 -6.4254627
27.723463 3.0721276 -7.4540396
26.192213 0.31414559 -8.4242001
26.506954 1.6269319 -9.2726536
27.577522 3.0429757 -10.464103
11.30609 0.065405555 4.5891871
11.823726 0.65439939 4.4690747
12.561861 1.309516 4.4134636
13.630529 2.105818 4.4368477
13.055209 0.082714483 3.8467734
13.807545 0.76636529 3.6933162
15.087776 1.5796714 3.6595771
15.629179 2.4150207 3.3990948
15.952559 0.095556691 3.0128365
16.297482 0.89603239 2.6646173
15.853539 1.6642166 2.1945992
15.6248 2.406795 1.7820356
21.057896 0.12613793 1.8425959
21.196991 1.1669238 1.3222119
16.854794 1.7631148 0.6390968
16.033659 2.4709985 0.20110573
26.260508 0.15377694 -0.32955408
26.572542 1.4687612 -0.98654765
27.765371 2.8992403 -1.7299056
26.258951 0.1395992 -2.9591682
26.495682 1.4560053 -3.6462295
27.578308 2.8939786 -4.5220008
26.185635 0.15042342 -5.6184478
26.472183 1.4415337 -6.4005651
27.45467 2.871927 -7.3768916
26.153643 0.15319297 -8.4113331
26.439322 1.4599992 -9.2456856
27.384533 2.8517184 -10.38404
11.287695 -0.0039620339 4.5816441
11.774104 0.57921052 4.4488921
12.465943 1.2222443 4.3770466
13.531023 2.0055175 4.4003692
13.030747 0.0026027234 3.8394887
13.772392 0.67967528 3.6827285
15.103282 1.4876654 3.6610553
15.59568 2.3119576 3.3886604
15.946558 -0.0023272603 3.0116489
15.884261 1.5689652 2.1974781
15.648825 2.312289 1.783124
21.051411 -0.0030722688 1.8419955
21.193924 1.036359 1.3215991
17.149063 1.6875874 0.64984995
16.129642 2.3845649 0.20212232
26.289312 -0.0073653343 -0.32990992
26.492422 1.3013338 -0.98325807
27.53093 2.704098 -1.7142328
26.239088 -0.021508737 -2.9568892
26.46439 1.2914648 -3.640764
27.324759 2.6979699 -4.4776278
26.178793 -0.010248598 -5.6168871
26.447531 1.2774823 -6.3925896
27.286036 2.6851363 -7.3270159
26.161686 -0.0072877738 -8.4137764
26.398952 1.295347 -9.2286158
27.201927 2.664089 -10.308404
11.295197 -0.073272146 4.5847845
11.761208 0.50625646 4.4427619
12.421617 1.1409925 4.358942
13.436418 1.907315 4.365715
13.052701 -0.077484176 3.846025
13.748768 0.59396714 3.6753678
14.980742 1.3828375 3.6292264
15.601423 2.2150636 3.3868914
15.963895 -0.10028435 3.0149825
16.090719 0.68672842 2.629236
15.941995 1.4759531 2.2041705
15.680982 2.2188103 1.7852031
21.07206 -0.13237357 1.8438387
21.191648 0.90594387 1.3210857
23.258224 2.1447639 0.88083649
16.254993 2.3012679 0.2035123
26.266621 -0.16853127 -0.32963192
26.455832 1.1368607 -0.9816227
27.324017 2.5145991 -1.7003565
26.229923 -0.18244897 -2.9559269
26.405149 1.1262146 -3.6315951
27.18346 2.5156965 -4.4518604
26.206078 -0.17106017 -5.6228604
26.343874 1.1105002 -6.365767
27.101498 2.4991724 -7.2732081
26.163851 -0.16783006 -8.4146452
26.341854 1.1305712 -9.2060566
27.025887 2.479527 -10.235734
11.279863 -0.14239161 4.5788298
11.727767 0.43274119 4.4290433
12.394753 1.0618724 4.3471475
13.366256 1.8137602 4.3392205
13.033557 -0.15735017 3.8405964
13.70413 0.5078156 3.6625333
14.960487 1.2884406 3.6223361
15.456554 2.0978262 3.3525846
15.997297 -0.19866125 3.0214646
16.130323 0.58928871 2.635067
16.011276 1.3833365 2.2125344
15.718568 2.1258337 1.7879635
21.032221 -0.26118708 1.8404583
21.17742 0.77518767 1.3198773
23.274017 2.0022779 0.88095272
16.377403 2.2161808 0.20487076
26.319145 -0.33037555 -0.33031031
26.416555 0.96859759 -0.97991967
27.192656 2.3343375 -1.6912588
26.255548 -0.34374592 -2.9589965
26.357389 0.9723044 -3.6241975
27.030048 2.334317 -4.4243069
26.219332 -0.33204183 -5.6260357
26.350355 0.94884217 -6.3658066
26.976799 2.3208306 -7.2357845
26.158201 -0.32831344 -8.4133177
26.299135 0.96711153 -9.18888
26.896227 2.3013003 -10.181087
11.280039 -0.21162455 4.5793419
11.728232 0.3607122 4.4282999
12.352805 0.9819656 4.3302398
13.29108 1.7205724 4.311307
13.045854 -0.23756559 3.8445771
13.688151 0.42313674 3.6575
14.901124 1.1912652 3.6061246
15.388817 1.9925476 3.3351772
16.025164 -0.29736042 3.0270154
16.18261 0.49179208 2.6430655
16.075853 1.2895907 2.2203226
15.75236 2.0320611 1.7903553
21.044153 -0.39049199 1.8416774
21.181923 0.64523524 1.3198863
23.279619 1.858935 0.88071644
16.491121 2.128612 0.20612603
26.323997 -0.49199846 -0.33040288
26.370455 0.80491704 -0.97800791
27.034273 2.1537247 -1.6805545
26.263041 -0.50503463 -2.9601347
26.302395 0.8087011 -3.615885
26.897511 2.1566851 -4.4003639
26.251392 -0.49356481 -5.6334596
26.251871 0.78404123 -6.3407331
26.830381 2.142472 -7.1928506
26.143623 -0.48858535 -8.4094343
26.192831 0.80230218 -9.1498451
26.754652 2.1239054 -10.122373
29.045748 3.7681806 -11.8874
11.273793 -0.28071567 4.5774193
11.688364 0.28771192 4.4124966
12.316352 0.90305424 4.3154378
13.227194 1.6298454 4.2872591
13.035622 -0.31740129 3.8420632
13.654051 0.33823723 3.6477649
14.83274 1.0942477 3.587883
15.344066 1.8910996 3.322901
16.079981 -0.39708951 3.0377727
16.276949 0.39471012 2.6580281
16.211073 1.2003759 2.2379394
15.813279 1.941353 1.7958915
21.081816 -0.52060807 1.8452183
21.17877 0.51508999 1.3194683
23.307434 1.7173001 0.88135344
16.676554 2.0485971 0.20828275
26.34037 -0.65400392 -0.33065253
26.313269 0.64580023 -0.97572654
26.941998 1.9800894 -1.6740315
28.768972 3.5397429 -2.5357368
26.307283 -0.66738558 -2.9655268
26.276091 0.63647151 -3.6116219
26.777414 1.9817743 -4.3786445
26.252689 -0.65475118 -5.6344934
26.240913 0.62258565 -6.3370447
26.73086 1.9695394 -7.1627955
28.434309 3.507453 -8.4351645
26.19751 -0.65041494 -8.4278927
26.19121 0.64142269 -9.1477318
26.688345 1.9539301 -10.09256
28.298033 3.4947588 -11.572392
11.274086 -0.34995422 4.5783238
11.665747 0.21554162 4.4033761
12.268947 0.8239255 4.2969756
13.167727 1.540556 4.2648401
13.066812 -0.39839819 3.8519042
13.632437 0.25401455 3.641506
14.79116 0.99996918 3.5762739
15.358068 1.7972291 3.3234825
16.064503 -0.49535415 3.0353656
16.366068 0.29640493 2.6722341
16.297197 1.1062508 2.2488494
15.856489 1.8479704 1.7994771
21.034996 -0.64862096 1.8414341
21.148588 0.38453081 1.317416
23.341665 1.5758853 0.88226563
16.96574 1.9785285 0.21173894
26.385674 -0.81715578 -0.33127794
26.286617 0.4837786 -0.97460985
26.831823 1.8065374 -1.6664656
28.191179 3.2931838 -2.4829817
26.357189 -0.83050877 -2.9716713
26.275867 0.47516677 -3.6111224
26.694307 1.8110051 -4.3631558
28.139982 3.3024275 -5.3426032
26.280617 -0.81683064 -5.6414571
26.23748 0.46144375 -6.335412
26.635967 1.7982963 -7.1342773
28.001993 3.2798228 -8.3007889
26.253407 -0.81301755 -8.4473219
26.213911 0.48105776 -9.1544571
26.572937 1.7816287 -10.044593
11.290118 -0.41980797 4.585794
11.670514 0.14400309 4.4047594
12.229218 0.74591154 4.2813778
13.08438 1.4494786 4.2348852
13.065639 -0.47862273 3.8523514
13.627873 0.17028941 3.6399391
14.718585 0.90437424 3.557318
15.30463 1.6958487 3.3096046
16.115076 -0.59590852 3.0455551
16.460766 0.19709484 2.6874483
16.416014 1.0131654 2.264344
15.913852 1.7557526 1.8047303
21.063639 -0.778898 1.8443252
21.129612 0.25450608 1.3161118
23.326982 1.4311668 0.88136214
27.919121 3.0823843 0.34819877
26.436956 -0.98114753 -0.33199111
26.295322 0.31835192 -0.97483891
26.720394 1.6344036 -1.658891
27.869028 3.0931866 -2.4530003
26.386129 -0.99351794 -2.9755652
26.250628 0.32365617 -3.607338
26.580372 1.6394956 -4.3428068
27.800325 3.0784714 -5.2741828
26.31201 -0.97944373 -5.6493802
26.213552 0.3001442 -6.329071
26.571232 1.6302093 -7.1141248
27.704409 3.0727646 -8.206831
26.288258 -0.97558695 -8.4603024
26.141582 0.31928974 -9.1283426
26.473419 1.6118524 -10.003049
27.630322 3.0685549 -11.283083
11.30281 -0.48974568 4.592083
11.667477 0.07236848 4.4033628
12.219069 0.67006552 4.2763042
13.021619 1.3616996 4.2117882
13.057957 -0.55859053 3.8510249
13.613055 0.086567886 3.6357706
14.714776 0.81354362 3.5551238
15.337894 1.6043304 3.3146067
16.150644 -0.69648212 3.0530274
16.591646 0.09684848 2.708668
15.963632 1.6621665 1.809185
21.095768 -0.9097361 1.8475922
21.149946 0.12496569 1.3173058
23.367556 1.2897872 0.88257951
27.73115 2.8895154 0.3456268
26.452883 -1.1443141 -0.33227307
26.295401 0.15699263 -0.97478783
26.640533 1.4655025 -1.6533437
27.621109 2.8942158 -2.4295697
26.440586 -1.1580753 -2.9824517
26.225685 0.16241552 -3.6037056
26.51429 1.4721708 -4.3304529
27.542728 2.8789883 -5.2218633
26.369356 -1.1436418 -5.6630926
26.193747 0.13918281 -6.3239636
26.466366 1.4608281 -7.0835152
27.452848 2.8744562 -8.1269331
26.331497 -1.139021 -8.4763079
26.1366 0.1588428 -9.126091
26.383242 1.4439349 -9.9654398
27.37328 2.87009 -11.170716
11.316483 -0.55992502 4.598947
11.650703 0.00077569252 4.3969479
12.189539 0.5934515 4.2646155
12.991154 1.2779799 4.1993189
13.074413 -0.639687 3.8569629
13.59705 0.0030344932 3.6314228
14.661439 0.7203877 3.5411026
15.311546 1.5066559 3.3068526
16.15863 -0.79618663 3.0554028
16.663082 -0.0049790405 2.7202842
16.763472 0.82825351 2.3106947
16.041897 1.5708792 1.8169285
21.091812 -1.0392599 1.8477695
21.161413 -0.0048128241 1.3179971
23.346853 1.1450005 0.88151568
27.431952 2.6882987 0.34168571
26.514996 -1.3100449 -0.33314794
26.256802 -0.00015383741 -0.97333956
26.606457 1.299932 -1.6507027
27.382864 2.6888628 -2.4070203
26.509192 -1.3240964 -2.9910502
26.230728 -0.0085504558 -3.6043298
26.447815 1.3057512 -4.3182063
27.340855 2.699471 -5.1805687
26.43964 -1.3092721 -5.6798048
26.21167 -0.021556068 -6.3282037
26.411352 1.2952927 -7.0665312
27.250544 2.6843402 -8.0620174
26.36537 -1.30261 -8.489625
26.171116 -0.0015333537 -9.1379738
26.389946 1.2819425 -9.9648132
27.197256 2.6830254 -11.091956
11.314347 -0.6294353 4.5995626
11.644082 -0.07067281 4.3945298
12.18318 0.51823103 4.261198
12.927489 1.1916747 4.1762972
13.112245 -0.72221154 3.8693578
13.601128 -0.080421008 3.6325753
14.631729 0.62895805 3.5329285
15.328432 1.4134088 3.3085639
16.193521 -0.89754057 3.062984
16.75934 -0.10784332 2.7360549
17.068611 0.73837292 2.3520868
16.143795 1.4809092 1.8274058
21.098616 -1.1694099 1.8489594
21.141867 -0.13453507 1.3168063
23.351803 1.001655 0.88145387
27.257811 2.5024741 0.33931902
26.56793 -1.4761286 -0.33392057
26.273966 -0.16137099 -0.97399414
26.507969 1.1321276 -1.6441305
27.202412 2.5027213 -2.3897631
26.56793 -1.4905081 -2.9986532
26.236954 -0.16954277 -3.6052601
26.417812 1.1418244 -4.3120823
27.154245 2.5129054 -5.1421919
26.489338 -1.4747196 -5.692318
26.186707 -0.18221807 -6.3223276
26.357624 1.130587 -7.0501671
27.067417 2.4987049 -8.0031528
26.441051 -1.4690367 -8.516736
26.139725 -0.16192494 -9.1271887
26.274586 1.1147856 -9.9184828
27.042887 2.5003483 -11.022534
11.323765 -0.69968063 4.6050501
11.661093 -0.14233384 4.401196
12.153008 0.44226137 4.2496157
12.88408 1.1079897 4.1599989
13.122625 -0.8035754 3.8738031
13.587125 -0.16371475 3.6290355
14.598825 0.53782332 3.5241201
15.328204 1.3185878 3.3067062
16.2521 -1.0008506 3.0751677
16.859247 -0.21194294 2.7525258
20.835087 0.77325797 2.8704062
16.220646 1.387648 1.8351067
21.113283 -1.3002161 1.8509091
21.152716 -0.26440752 1.3175583
23.372576 0.85890585 0.88202244
27.069893 2.3178153 0.33679634
26.64637 -1.6445495 -0.33502695
26.335979 -0.32336167 -0.97634828
26.476374 0.9680655 -1.6417713
27.045006 2.320981 -2.374639
26.61479 -1.6570159 -3.0050333
26.246355 -0.33066428 -3.6067631
26.373751 0.97783124 -4.3038297
27.018457 2.3332291 -5.1136703
26.564178 -1.6424452 -5.7104588
26.212269 -0.34324911 -6.3288884
26.324268 0.96737599 -7.0395246
26.957041 2.3217921 -7.9661551
26.518486 -1.6366144 -8.5447521
26.165247 -0.32264528 -9.1366196
26.261366 0.95283681 -9.9110994
26.887135 2.3196523 -10.953043
11.345542 -0.77093482 4.6157432
11.644985 -0.21360685 4.3955288
12.125095 0.36676413 4.2389884
12.851322 1.0257756 4.1473117
13.129075 -0.88486284 3.8772368
13.602522 -0.24738365 3.6334851
14.57981 0.44755998 3.518801
15.338187 1.2246852 3.3071766
16.301849 -1.1043597 3.0858054
16.937614 -0.31688175 2.7655857
20.792885 0.64396 2.8639941
16.369223 1.2992349 1.8509791
21.11342 -1.430317 1.8516557
21.172028 -0.39459074 1.3188871
23.368979 0.71522027 0.88170451
26.957008 2.1416163 0.33522204
26.747328 -1.8155895 -0.33643004
26.300308 -0.48433885 -0.97511762
26.439812 0.8043136 -1.6391674
26.931437 2.1448538 -2.363467
26.732195 -1.8290528 -3.0194995
