# .PCD v0.7 - Point Cloud Data file format
VERSION 0.7
FIELDS x y z
SIZE 4 4 4
TYPE F F F
COUNT 1 1 1
WIDTH 1343
HEIGHT 1
VIEWPOINT 0 0 0 1 0 0 0
POINTS 1343
DATA ascii
17.109203 0.4241198 2.3541424
16.873434 1.2412256 1.9044409
17.139454 0.32007346 2.3579919
16.873379 1.1371732 1.9036114
17.134272 0.21481615 2.357053
16.890028 1.0342304 1.9047378
17.137455 0.10969219 2.3573539
16.905487 0.93109512 1.9058009
17.134205 0.0045357365 2.356859
16.89365 0.82650441 1.9038591
17.146498 -0.10067177 2.3585901
16.902859 0.72302186 1.9043611
17.140158 -0.20581396 2.3578477
16.903809 0.61917824 1.9040042
17.150599 -0.31119835 2.3595018
16.901964 0.51528436 1.9034045
17.146269 -0.41637564 2.3592134
16.90308 0.41152412 1.9032099
17.169436 -0.52236772 2.3627973
16.943583 0.30849823 1.9075212
17.159142 -0.62746024 2.3603384
16.891962 0.20448044 1.8989152
17.173288 -0.73351729 2.3628592
16.933237 0.10107022 1.9034498
17.16732 -0.83882099 2.3627017
16.935522 -0.0028324074 1.9047337
17.206528 -0.94659978 2.3688526
16.905691 -0.10656085 1.9014165
17.191677 -1.051626 2.3676519
16.926268 -0.21055831 1.9038403
17.196962 -1.1579045 2.3693137
16.925039 -0.31441906 1.9038831
17.186821 -1.2632017 2.3689396
16.910519 -0.41795993 1.9025027
17.17807 -1.3685806 2.3688467
16.962803 -0.52341533 1.9087101
16.954988 -0.62732875 1.908228
16.958101 -0.73166502 1.9090477
16.92898 -0.83450568 1.90631
16.961901 -0.9404912 1.9106309
15.875966 106.88747 31.795813
13.212117 88.921677 -1.1187055
16.438965 110.43787 -35.895325
16.380899 105.81509 31.506121
15.523235 100.20708 19.150677
13.6912 88.410912 -1.1133157
16.883457 108.83403 -35.40704
16.953203 105.23673 31.364298
15.920827 98.763939 18.893188
14.201248 88.12558 -1.110799
15.602242 96.564659 -11.003494
16.337019 101.19074 -22.027365
17.604412 109.05968 -35.514923
17.640835 105.383 31.43956
16.428537 98.079346 18.78116
15.629264 93.274414 8.2353392
14.749777 88.085022 -1.1114075
16.110813 95.968842 -10.94666
16.743225 99.810616 -21.74889
16.998873 97.797424 18.746796
16.045527 92.280907 8.1561613
15.274987 87.906578 -1.1103178
16.636122 95.505173 -10.90521
17.188314 98.746452 -21.539583
17.637959 97.909615 18.788692
16.566772 91.932793 8.1342239
15.791819 87.687561 -1.1087544
17.22381 95.412338 -10.906471
18.374411 101.8572 -22.242308
18.385145 98.586487 18.939875
17.10273 91.680328 8.1210184
16.270607 87.272781 -1.1047513
17.866409 95.612473 -10.941675
17.720566 91.861977 8.1465864
16.807209 87.178612 -1.1048441
15.675976 105.54681 28.514978
18.42449 92.457077 8.2092333
17.348328 87.092522 -1.0959663
16.126614 104.178 28.171381
13.791718 89.043442 5.6249471
17.906149 87.099991 -1.0974224
17.177938 110.79701 -39.162762
16.649719 103.35812 27.976772
15.681222 97.421547 16.111315
14.324383 88.873772 5.6196752
9.891264 89.121994 3.3600459
18.512671 87.330116 -1.1017323
15.726228 97.523018 -13.60205
16.568945 102.59114 -25.055458
17.292439 103.3068 27.991074
16.170906 96.679138 16.004644
14.875558 88.82077 5.6219893
10.352131 88.327621 3.3324292
19.179266 87.81517 -1.1093155
16.198118 96.671478 -13.496891
16.986942 101.22907 -24.747795
18.020266 103.74149 28.138281
16.714022 96.291229 15.957107
15.37599 88.473022 5.6058445
10.8381 87.810303 3.3153584
19.712414 87.672188 -1.1090163
15.940562 91.91861 -3.4957583
16.749813 96.33358 -13.46381
17.882971 102.70353 -25.134615
17.320515 96.275642 15.971835
15.857173 88.036194 5.5842261
11.351579 87.548477 3.3080404
20.444588 88.390915 -1.1196736
16.435165 91.434647 -3.4811227
17.33305 96.187134 -13.457954
17.977354 96.524231 16.031073
16.376181 87.82534 5.5771203
11.856672 87.242584 3.2991691
20.80195 87.487381 -1.1098243
16.967297 91.178482 -3.4752681
18.00765 96.533195 -13.521579
15.885751 111.71714 39.423603
18.89369 98.096451 16.31114
21.497793 87.980682 7.8865314
16.882046 87.553543 5.5663338
12.37068 87.019897 3.2935562
21.149214 86.583694 -1.0999861
17.568878 91.293182 -3.4836833
18.948267 98.228226 -13.775029
16.380766 110.33662 38.994717
16.788923 66.925766 6.0083036
17.433434 87.521027 5.5709629
12.887612 86.8293 3.24506
21.511473 85.779922 -1.091431
15.78305 106.67822 -28.815243
16.982708 109.75095 38.823826
15.916512 102.71981 25.056803
16.763029 65.126686 5.8559141
17.999432 87.554955 5.5800476
13.410753 86.687943 3.2427912
21.908913 85.146942 -1.0850673
15.365989 99.494698 -16.416475
16.288345 105.61343 -28.554085
17.696438 109.897 38.889671
16.411766 101.78466 24.852785
15.530803 96.621536 13.483068
16.73653 63.409397 5.7106285
18.658274 88.018166 5.6167593
13.942138 86.602333 3.2869101
22.316128 84.575775 -1.0795133
15.848714 98.605431 -16.285486
16.736814 104.27011 -28.218138
16.991682 101.41753 24.788134
15.946249 95.464066 13.334949
16.715355 61.790146 5.5739317
19.319189 88.456947 5.6522179
14.500217 86.6763 3.2930322
10.322067 88.244629 1.1144713
22.840876 84.460243 -1.0798072
15.687105 93.68174 -5.9140892
16.296413 97.56617 -16.130054
17.203804 103.13145 -27.938028
17.650175 101.52145 24.839539
16.442251 94.848396 13.262793
16.69195 60.234955 5.4427786
19.901905 88.516052 5.6636915
14.99806 86.391457 3.285645
10.818186 87.813248 1.1098408
23.412657 84.513329 -1.0823022
16.155903 92.975273 -5.8756375
16.800854 96.922577 -16.040394
18.406178 106.31578 -28.830706
18.53618 102.87315 25.197615
17.016989 94.70713 13.257391
16.660437 58.718819 5.3149195
15.496898 86.125694 3.2790918
11.329813 87.536743 1.1072038
23.976997 84.531013 -1.0843923
16.678383 92.609566 -5.8588834
17.375029 96.705139 -16.021753
17.628693 94.767159 13.280685
16.667812 57.40118 5.2048125
15.873553 66.760689 4.2838182
11.851176 87.351028 1.1057539
24.539574 84.535103 -1.0863559
21.14192 89.061409 -3.430027
17.250811 92.529617 -5.8604121
26.199915 90.158043 -10.57768
18.177437 97.722252 -16.208437
26.066198 89.809479 -20.123798
25.952118 89.378731 -29.963993
18.323942 95.250313 13.3639
16.665407 56.105064 5.0964642
15.81551 82.102455 3.1330678
12.354265 87.046516 1.102838
25.081026 84.461105 -1.0873623
17.879856 92.741646 -5.8806782
26.380165 88.742645 -10.430413
26.31716 88.638733 -19.897276
26.224316 88.289497 -29.652218
16.104202 108.50322 35.268715
16.647444 54.810207 4.9880276
15.86558 63.266895 4.0718207
15.675055 78.768135 2.993783
12.878107 86.901352 1.0782753
25.653925 84.496597 -1.0877471
21.758722 86.798233 -3.3731141
26.75086 88.051392 -10.342876
26.695967 87.836365 -19.728495
26.600985 87.728188 -29.464054
16.638239 107.55281 34.99231
15.861657 61.64555 3.9736607
13.395027 86.716766 1.0769845
26.215679 84.478653 -1.0895663
22.142698 86.086914 -3.350688
27.166948 87.487289 -10.296002
27.139833 87.366432 -19.659981
16.588774 107.13069 -31.92701
27.039358 87.242546 -29.356117
17.291834 107.41126 34.980122
16.113087 100.29116 21.814886
16.667337 52.547905 4.8003993
15.36522 72.548546 2.7643509
13.919417 86.586632 1.0764087
26.785629 84.480499 -1.0916895
22.559509 85.528618 -3.3342831
27.646841 87.141151 -10.275038
16.058123 99.697105 -19.069736
27.571228 86.870056 -19.585983
17.073931 105.96025 -31.608824
27.503422 86.851608 -29.280806
18.079325 108.07286 35.231041
16.643085 99.68087 21.703943
15.729888 94.195045 10.727473
16.619583 51.302917 4.6958938
15.86348 58.660069 3.7934806
15.402497 70.585068 2.6930859
14.462008 86.568886 1.077271
27.390045 84.581841 -1.0951502
23.028994 85.185555 -3.3263552
15.864665 94.789291 -8.3949203
28.111206 86.754448 -10.249586
16.484312 98.490013 -18.85784
28.070887 86.597916 -19.563089
27.982744 86.517159 -29.225389
17.256842 99.590942 21.707008
16.231916 93.660271 10.677711
16.639973 50.310802 4.6143417
15.837701 57.170406 3.7033606
15.484514 68.927696 2.6334264
14.977815 86.391434 1.0761862
27.951996 84.543701 -1.0968565
23.597178 85.208496 -3.3328421
16.38154 94.319107 -8.3620243
28.585051 86.405182 -10.228852
16.943567 97.553551 -18.69809
28.554195 86.280457 -19.530588
28.466934 86.204086 -29.178089
17.956978 99.980843 21.815598
16.744673 93.215889 10.638563
16.627787 49.258087 4.5270629
15.868571 55.945305 3.6302402
15.481936 66.991432 2.5630314
15.471136 86.094864 1.0736542
28.530519 84.549294 -1.0991796
24.17112 85.243919 -3.3399661
16.942188 94.118073 -8.35326
29.126579 86.263374 -10.23303
17.569691 97.602539 -18.727789
29.105978 86.171486 -19.54598
28.999071 86.038879 -29.181849
17.325338 93.159882 10.644103
16.609325 48.22488 4.4413891
15.850707 54.603836 3.549438
15.523428 65.340851 2.503479
15.940849 85.685135 1.0697442
29.101871 84.526878 -1.1011889
24.728758 85.214806 -3.3447073
17.53886 94.116936 -8.3625536
29.694546 86.196899 -10.246565
26.193148 90.240044 -12.915096
29.671038 86.098259 -19.570297
26.038235 89.612556 -22.473431
29.552202 85.934204 -29.2073
25.899384 89.226913 -32.462345
17.987244 93.522942 10.697994
16.597866 47.248001 4.3607183
15.856731 53.398556 3.47735
15.546056 63.695633 2.4440527
16.016788 83.249283 1.0405409
29.657709 84.454216 -1.1025922
25.295107 85.209503 -3.350528
18.190458 94.393806 -8.3969135
30.315121 86.275574 -10.277836
26.377197 88.834351 -12.736839
30.251577 86.064812 -19.604519
26.349508 88.650078 -22.272182
30.133129 85.905769 -29.259926
26.23188 88.343903 -32.199047
16.592913 46.322968 4.2846589
16.044582 80.720894 1.0101498
30.261154 84.510254 -1.1057273
25.866325 85.213638 -3.3568687
30.92239 86.306938 -10.303982
26.717047 87.996513 -12.639979
30.908825 86.239548 -19.687151
26.710325 87.885796 -22.120928
30.776426 86.045685 -29.371349
26.597355 87.601273 -31.987257
15.860076 51.103165 3.3402963
15.627235 60.780239 2.3393693
30.848299 84.512482 -1.1082121
26.417732 85.146896 -3.3605616
31.594101 86.506348 -10.350739
27.147636 87.480179 -12.589502
31.593616 86.475853 -19.784981
27.120899 87.30761 -22.01687
31.427038 86.193176 -29.486967
27.065405 87.214203 -31.905962
16.588451 44.579586 4.1419225
15.847347 49.976822 3.2729685
15.649915 59.355869 2.2881997
31.425112 84.479767 -1.1102908
27.01103 85.20826 -3.3694613
32.413677 87.088356 -10.443978
27.587391 87.007599 -12.545617
32.316891 86.799446 -19.904009
27.569326 86.86615 -21.947792
32.142796 86.503296 -29.659973
27.521309 86.79821 -31.814957
16.605421 43.811928 4.1052241
15.840168 48.927162 3.209501
15.681164 57.989468 2.2325029
16.124035 73.80616 0.92224163
32.004761 84.430321 -1.1266789
27.576889 85.172478 -3.3222349
28.092585 86.718376 -12.569564
33.274559 87.797737 -20.167265
28.08087 86.608124 -21.966045
33.176548 87.471947 -30.054056
28.010998 86.511345 -31.768236
16.601217 43.0028 4.0388765
15.853299 47.961433 3.1524734
16.182453 71.953316 0.9003132
32.620312 84.486427 -1.1300775
28.163118 85.195686 -3.3298178
28.581743 86.416153 -12.550941
28.5672 86.299568 -21.931833
28.479759 86.151688 -31.699738
16.59486 42.213547 3.9742374
15.83148 46.927166 3.0908186
15.750055 55.530727 2.1451254
16.279049 70.363205 0.88165021
33.217052 84.485497 -1.1327699
28.745363 85.199181 -3.3367851
29.120251 86.265228 -12.554737
29.116966 86.184166 -21.947498
28.998707 85.948242 -31.689758
16.596994 41.469849 3.9137356
15.848419 46.042702 3.0389118
15.786451 54.385628 2.1045928
16.372406 68.840492 0.86381322
33.821091 84.495621 -1.1356668
29.326059 85.191025 -3.3434503
29.671486 86.1502 -12.564257
26.121553 90.102554 -15.325442
29.675438 86.091537 -21.969864
26.002506 89.590912 -24.912746
29.594248 85.968346 -31.763523
25.873333 89.082375 -35.002647
16.571655 40.65406 3.8387425
15.800248 53.279156 2.0935287
16.421694 67.267128 0.84794635
34.408539 84.487061 -1.1456594
29.901968 85.228737 -3.3768754
26.425241 88.965256 -5.7937069
30.268248 86.150688 -12.582328
26.342289 88.791145 -15.121682
30.250586 86.012466 -21.964537
26.271929 88.557579 -24.683685
30.17971 85.928947 -31.813953
26.213533 88.246643 -34.753956
16.596022 40.009739 3.7874465
15.833859 52.214966 2.0554919
35.006134 84.466995 -1.1482784
30.46929 85.169281 -3.3818634
26.760775 88.110497 -5.7486277
30.90653 86.271049 -12.627367
26.683088 87.95697 -15.007217
30.861567 86.058907 -22.024338
26.62413 87.766121 -24.508156
30.775969 85.936424 -31.886034
26.591459 87.547318 -34.542152
16.561985 39.270557 3.7266703
15.887424 43.537453 2.8889241
16.483749 64.115761 0.81069618
35.672569 84.54895 -1.1651033
31.104916 85.287567 -3.3829439
27.176523 87.548241 -5.7123332
31.574009 86.486755 -12.690488
27.151064 87.49781 -14.950399
31.551155 86.386909 -22.14535
27.059437 87.378929 -24.475386
31.459236 86.170113 -32.031132
27.050428 87.072395 -34.440502
16.558659 38.599472 3.672559
15.899652 42.75449 2.8433905
16.498446 62.578163 0.79251951
36.278595 84.533318 -1.1679335
31.689936 85.262703 -3.3896067
27.650599 87.182487 -5.6994319
32.348137 86.947388 -12.786962
27.582287 86.99794 -14.893626
32.26582 86.689255 -22.27319
27.482588 86.855743 -24.375616
27.502216 86.646538 -34.338158
16.563467 37.966442 3.6225317
15.924939 49.174881 1.9223837
16.535347 61.130047 0.78030378
36.858173 84.444695 -1.1698236
32.26952 85.240967 -3.3964338
28.101336 86.753433 -5.6825447
28.048531 86.716141 -14.873035
33.29237 87.738274 -22.596598
27.957609 86.465569 -24.314901
33.076023 87.236328 -32.576946
28.018675 86.370041 -34.287155
16.543995 37.295734 3.5681555
15.938055 41.2971 2.7517247
15.942018 48.216217 1.8886955
16.612305 59.952625 0.76656115
37.486649 84.46711 -1.1732987
32.829887 85.139763 -3.4003642
28.594093 86.461372 -5.6747999
28.538162 86.415466 -14.851219
28.47142 86.243301 -24.301069
28.503164 86.060799 -34.233177
15.948769 47.261696 1.855104
16.683893 58.806381 0.75319988
38.083427 84.411049 -1.1757437
33.476639 85.254951 -3.4131043
29.157099 86.382133 -5.6812353
29.092119 86.310699 -14.863613
29.040911 86.188202 -24.335295
29.042732 85.919952 -34.247395
16.55254 36.112751 3.4741504
15.948167 39.860058 2.6688118
15.998917 46.467216 1.8277382
38.781563 84.570305 -1.1812544
34.12077 85.352234 -3.4253163
29.721437 86.302818 -5.6879053
26.276289 90.634682 -8.24687
29.632742 86.16423 -14.869423
26.076086 89.980499 -17.703094
29.582832 86.048019 -24.346508
25.981884 89.611885 -27.463074
29.610725 85.860008 -34.29528
25.836088 89.176468 -37.70874
16.550991 35.531765 3.4348361
16.015062 45.616882 1.8025146
39.362804 84.508163 -1.1468921
34.730949 85.268829 -3.4235408
30.296011 86.265244 -5.7075686
26.383623 88.808655 -8.1156044
30.22423 86.162689 -14.898609
26.299997 88.797058 -17.465012
30.164263 85.889381 -24.33024
26.22942 88.494682 -27.166689
30.166309 85.856583 -34.307278
26.171154 88.210518 -37.346016
16.534466 34.934639 3.3868566
15.990496 38.587959 2.5965705
16.04077 44.808533 1.7744291
16.853668 55.544922 0.71549374
39.988979 84.494049 -1.150009
35.326046 85.229149 -3.4305861
30.946188 86.416832 -5.7300529
26.752695 88.067848 -8.0627556
30.824333 86.176872 -14.933484
26.645201 87.976456 -17.335442
30.832666 86.099106 -24.442781
26.576126 87.686096 -26.968019
30.728323 85.769722 -34.347267
26.590372 87.647652 -37.17609
16.523184 34.363907 3.3340526
16.010685 37.976112 2.5689955
16.062925 44.017384 1.765182
40.627987 84.499405 -1.1684961
35.95443 85.262367 -3.4827898
31.616476 86.61055 -5.7256379
27.186331 87.559883 -8.0003138
31.502226 86.396713 -15.005353
27.070177 87.441978 -17.307238
31.496607 86.281471 -24.535389
27.029747 87.250526 -26.892374
31.419464 86.032585 -34.552547
26.982815 87.015717 -37.018627
16.522146 33.828671 3.2918971
16.008907 37.330353 2.5319088
41.305504 84.575714 -1.1730342
36.595249 85.316032 -3.4940884
32.441051 87.204514 -5.7779546
27.631128 87.101562 -7.9737787
32.260361 86.817001 -15.112443
27.546198 87.084534 -17.269619
32.253208 86.698883 -24.709896
27.494423 86.86132 -26.82391
32.198009 86.513268 -34.824291
27.435587 86.593994 -36.910141
16.504969 33.274193 3.2482789
16.03232 36.732254 2.4873767
16.089096 42.496017 1.7074169
17.03256 52.614994 0.69077718
41.95705 84.549095 -1.1763231
37.139965 85.147682 -3.4573801
28.068573 86.671677 -7.9717693
33.356892 88.107048 -15.372373
28.0224 86.581032 -17.206388
33.101357 87.459389 -24.982325
27.974079 86.490227 -26.710461
27.922009 86.302353 -36.822292
16.495712 32.749203 3.2068491
16.042437 36.148804 2.4544868
16.12011 41.801556 1.6834569
17.089775 51.706791 0.68021739
42.59798 84.534019 -1.1797277
37.769691 85.161629 -3.4672914
28.610722 86.530693 -7.9747987
28.514788 86.291451 -17.183287
28.476137 86.231819 -26.684116
28.432646 86.073792 -36.798519
16.117935 41.043949 1.6568979
17.138968 50.80724 0.66975439
43.264065 84.560692 -1.1837825
38.437332 85.251671 -3.4804943
29.122669 86.298813 -7.969748
29.081591 86.227119 -17.205687
29.004202 86.05397 -26.683649
28.951967 85.873146 -36.787994
16.499748 31.780403 3.1315756
16.077684 35.061329 2.3938653
43.901024 84.522621 -1.1869981
39.049702 85.210602 -3.4885342
29.73098 86.348915 -7.9910717
29.643061 86.142769 -17.224825
29.581167 86.018288 -26.728369
29.515762 85.802696 -36.834709
16.478399 31.268616 3.0910504
16.0541 34.450405 2.358835
16.159449 39.710335 1.6109458
29.685392 84.559547 1.1194044
44.575939 84.549667 -1.1911967
39.693352 85.23037 -3.4992492
30.293587 86.259796 -7.9998755
30.224617 86.111832 -17.255398
30.138153 85.91996 -26.754772
30.114305 85.82695 -36.923748
16.478743 30.809425 3.0555952
16.088947 33.979053 2.3332767
16.161787 39.028416 1.5872753
30.268726 84.55751 1.1218151
45.170006 84.416817 -1.1932075
40.326527 85.219681 -3.5089037
30.916857 86.336349 -8.0244179
30.844044 86.180763 -17.306808
30.751274 85.975235 -26.830236
30.691189 85.782616 -36.984997
16.093237 33.455814 2.3040845
16.210583 38.476646 1.568851
30.831566 84.492348 1.1234392
45.883118 84.499001 -1.1861757
40.934013 85.148209 -3.5452702
31.613819 86.604713 -8.0400419
31.517532 86.3881 -17.386955
31.41922 86.171616 -26.951174
31.397314 86.087166 -37.198669
16.454451 29.876551 2.9828782
16.099697 32.95015 2.2760203
16.217476 37.842361 1.5470167
31.424393 84.503174 1.1261258
46.541042 84.470543 -1.1897625
41.619205 85.230263 -3.5592525
32.412178 87.128334 -8.1069632
32.293701 86.856575 -17.520796
32.155262 86.536713 -27.126564
32.104801 86.376793 -37.408237
16.448435 29.436749 2.9489892
16.102415 32.449402 2.2482138
16.222017 37.220505 1.5256354
32.003769 84.471031 1.1282932
47.288334 84.594597 -1.2078209
42.293293 85.279587 -3.5428288
33.287209 87.874222 -17.766945
33.079327 87.377701 -27.453295
32.92543 86.947273 -37.742085
16.457857 29.033796 2.9186828
16.117903 31.986197 2.2229316
16.253916 36.677589 1.5074413
32.618565 84.524658 1.1316615
47.961582 84.576302 -1.2117388
42.946571 85.278214 -3.5536528
16.443308 28.59767 2.8849289
16.25102 36.071877 1.4866171
33.210106 84.510017 1.1341724
48.641624 84.562065 -1.215788
43.529652 85.131668 -3.5586092
16.425241 28.164902 2.8513851
16.135695 31.066847 2.1726384
16.25831 35.504726 1.4673271
33.828018 84.554588 1.1375349
49.282032 84.471916 -1.2188166
44.215725 85.179939 -3.5719006
16.158123 30.6488 2.1502957
34.392994 84.460342 1.1390847
49.986717 84.484505 -1.2234007
44.872742 85.16362 -3.582695
17.213253 41.541267 5.0632796
16.434298 27.402088 2.7943668
16.168591 30.217745 2.1269739
16.316681 34.507141 1.4342669
35.038475 84.556343 1.1432574
50.708878 84.517403 -1.2283597
17.164154 40.714546 4.9752574
16.426361 27.011705 2.7647836
16.314003 33.960674 1.4156876
35.644352 84.547791 1.1460774
51.469429 84.603958 -1.2341845
17.137009 39.963333 4.8962178
16.4359 26.65757 2.738807
16.175184 29.358202 2.0802879
16.333801 33.474102 1.3995557
36.233379 84.492905 1.1483254
52.206879 84.642097 -1.2393905
17.148684 39.308777 4.8245602
16.430172 26.286108 2.7160556
16.170752 28.947969 2.0552361
16.352522 32.968407 1.3704846
36.863373 84.483597 1.1580315
52.854851 84.630898 -1.2309219
16.444044 25.952631 2.6919737
16.192553 28.573774 2.0356848
16.368946 32.499039 1.3551229
37.505329 84.535919 1.1618813
53.574982 84.62381 -1.2355769
17.080027 37.87627 4.6741166
16.430899 25.583313 2.664073
16.177963 28.144024 2.0121024
16.371708 32.014053 1.3390639
38.111347 84.499344 1.1645708
54.30014 84.615929 -1.2403033
17.083761 37.272549 4.612464
16.421808 25.227373 2.6374512
16.20285 27.791241 1.9939514
16.385942 31.562635 1.3243628
38.697655 84.413437 1.1666374
55.070488 84.668869 -1.2460089
17.055964 36.617058 4.5442123
16.439051 24.918108 2.6156149
16.208204 27.412468 1.9738736
16.420868 31.160856 1.3117074
39.373379 84.514626 1.1713527
17.051928 36.029144 4.4841518
16.417526 24.556351 2.5881674
16.198885 27.016939 1.9525135
16.443846 30.745558 1.2984484
40.012791 84.528282 1.1749227
17.02607 35.410934 4.4201298
16.403481 24.212473 2.5624835
16.184111 26.620564 1.931008
16.457279 30.321829 1.2847937
40.643021 84.514748 1.1781789
16.407038 23.900578 2.5400817
16.20867 26.296099 1.9146501
16.4615 29.890675 1.270781
41.292755 84.533875 1.1819553
16.998714 34.270687 4.3035159
16.397047 23.574688 2.5160925
16.224442 25.963673 1.8976586
16.483673 29.501101 1.2584949
41.892483 84.443832 1.1842681
17.001062 33.753548 4.2515965
16.403778 23.278353 2.4951608
16.221228 25.607546 1.8788692
16.477989 29.07057 1.2444186
42.591496 84.545799 1.1893409
16.40309 22.976658 2.4735646
16.237972 25.289379 1.8628
16.513048 28.720196 1.2337344
43.218983 84.497002 1.1923627
16.957056 32.662251 4.1400371
16.412458 22.694017 2.4539323
16.224455 24.930531 1.8436658
16.536861 28.357512 1.2224903
43.850727 84.449951 1.1954731
16.954535 32.173103 4.091146
16.402485 22.38962 2.4318542
16.225248 24.600243 1.8265685
16.557959 27.997498 1.2113274
44.557087 84.537895 1.2005658
16.920736 31.63677 4.0360723
16.414478 22.120001 2.4134638
16.237673 24.293438 1.8111521
16.568953 27.627781 1.1997074
45.165958 84.433014 1.2029895
16.39575 21.813782 2.390985
16.275803 24.03002 1.798925
45.903179 84.559578 1.2087829
16.90995 30.704535 3.94332
16.4058 21.550556 2.373122
16.267668 23.703451 1.7819165
16.606319 26.935095 1.1783893
46.538483 84.489319 1.2118379
16.920528 30.282522 3.9023826
16.40662 21.279446 2.3543091
16.287794 23.423414 1.7735112
16.60054 26.559526 1.1639906
47.181946 84.478409 1.1922756
16.898123 29.811369 3.8549562
16.375278 20.971418 2.3313024
16.27795 23.105486 1.7569687
16.626978 26.242178 1.1545322
47.867001 84.483131 1.1964651
16.892717 29.380138 3.8125246
16.385622 20.721289 2.31463
16.315245 22.859222 1.7458221
16.652805 25.929649 1.1452564
48.599998 84.562828 1.2017944
16.895742 28.972534 3.7730138
16.394949 20.473619 2.2981586
16.326485 22.58066 1.7321659
16.657602 25.590412 1.1347661
49.267624 84.519798 1.2054565
16.859676 28.507288 3.7258282
16.392387 20.214939 2.2803695
16.318031 22.279762 1.7167326
16.686789 25.294422 1.12616
49.948036 84.491188 1.2093968
16.845835 28.089087 3.6846108
16.39456 19.965942 2.2635863
16.329378 22.01066 1.7036856
16.691498 24.966919 1.1161178
50.648567 84.488457 1.2137834
16.872169 27.745594 3.6530643
16.376663 19.696474 2.2443862
16.335094 21.738338 1.6903336
16.705187 24.658571 1.1068949
51.360729 84.496407 1.218402
16.862194 27.349754 3.6145015
16.429482 19.515167 2.235172
16.336216 21.464321 1.6767895
16.699842 24.327866 1.096629
52.057819 84.471085 1.2226201
16.853899 26.964531 3.5771906
16.426161 19.269985 2.2185922
16.342798 21.201759 1.6640806
16.713322 24.030151 1.0878112
52.823853 84.548172 1.2284039
16.865892 26.61891 3.545002
16.4118 19.015554 2.2008519
16.359531 20.956266 1.6526601
16.726801 23.73748 1.0791882
53.538437 84.533188 1.232936
16.841049 26.222422 3.5058956
16.414124 18.783987 2.1856661
16.349615 20.680689 1.6388083
16.748978 23.461878 1.0713106
54.255318 84.51339 1.2374796
16.857035 25.896458 3.476078
16.427343 18.567934 2.1722143
16.381714 20.461958 1.6294099
16.750362 23.161953 1.0622886
55.00182 84.530769 1.2426524
16.406172 18.316301 2.1545131
16.376291 20.199883 1.6165118
16.751417 22.866608 1.0534375
16.823097 25.163439 3.4051421
16.424669 18.112095 2.142307
16.406136 19.98477 1.6073229
16.814903 24.82021 3.3725941
16.435669 17.902243 2.129374
16.417101 19.749773 1.5964947
16.79674 22.347952 1.0389618
16.805958 24.482145 3.3406072
16.419054 17.665333 2.1131382
16.411282 19.498146 1.5842645
16.811094 22.083609 1.0314486
16.827374 24.200512 3.3190246
16.426174 17.456808 2.096266
16.413759 19.248938 1.569988
16.806255 21.814087 1.0347264
16.823124 23.880436 3.2892225
16.457279 17.276226 2.086668
16.438313 19.039858 1.5611324
16.81061 21.544994 1.0268358
17.217621 21.793497 3.8307226
16.833485 23.586416 3.2628903
16.422752 17.029514 2.0690022
16.4517 18.820658 1.5514073
16.827866 21.296377 1.0198885
17.173475 21.465527 3.7915251
16.82585 23.27239 3.2336702
16.425283 16.824306 2.0562766
16.433998 18.56922 1.5389644
16.871899 21.084848 1.0146971
17.168549 21.191494 3.7616584
16.833891 22.985149 3.2080505
16.453701 16.647823 2.0470073
16.444885 18.353369 1.5294092
16.855104 20.80093 1.0059921
17.164757 20.923021 3.7326279
16.824032 22.678448 3.1795926
16.469208 16.460262 2.0363326
16.446777 18.1304 1.51921
16.907028 20.605236 1.0015261
17.159252 20.656525 3.703799
16.814625 22.377508 3.1518056
16.440266 16.230921 2.020402
16.473721 17.937689 1.5115036
16.924967 20.370911 0.99516565
17.152092 20.392031 3.6751761
16.835691 22.121592 3.1302519
16.455215 16.047497 2.0101004
16.466866 17.710852 1.5008754
16.964867 20.165907 0.99021733
17.147779 20.1348 3.647711
16.440254 15.837258 1.9963645
16.49608 17.525394 1.4937086
16.991892 19.948269 0.98463172
17.143576 19.881428 3.6207981
16.805832 21.528938 3.0753431
16.447119 15.650444 1.9854994
16.496487 17.31175 1.4840989
16.997738 19.70886 0.97794437
17.14562 19.638847 3.5927389
16.45845 15.469912 1.9753708
16.486851 17.090427 1.4737699
17.033628 19.507172 0.97310454
17.108931 19.355804 3.5600967
16.80015 20.985559 3.0269473
16.45722 15.279649 1.9639333
16.485722 16.880726 1.4643823
17.049734 19.285479 0.96724606
17.130062 19.141722 3.5429161
16.803522 20.727791 3.0045824
16.444805 15.0813 1.951372
16.510881 16.700249 1.4574875
17.0877 19.091068 0.96273607
17.122093 18.89818 3.5172186
16.798092 20.463135 2.9811041
16.483536 14.931653 1.9450595
16.507277 16.492952 1.4482085
17.116467 18.888689 0.95780873
17.113285 18.657095 3.491827
16.794729 20.20496 2.9584501
16.475895 14.741695 1.9334477
16.520824 16.305153 1.4405924
17.123335 18.664818 0.95176649
17.085371 18.398745 3.4630308
16.800968 19.962017 2.9379172
16.459641 14.546294 1.9210299
16.54088 16.125799 1.4336863
17.16893 18.485529 0.94797832
17.11441 18.216005 3.4473455
16.795494 19.7036 2.9125791
16.467201 14.37411 1.915195
16.538122 15.935377 1.4276586
17.098572 17.976824 3.4218714
16.779373 19.441778 2.8890417
16.498537 14.224043 1.9086525
16.540833 15.743414 1.4195267
17.082405 17.740562 3.3967874
16.77346 19.195534 2.8676898
16.488995 14.040366 1.8975465
16.535744 15.546314 1.4108769
17.10108 17.543234 3.3790326
16.787191 18.974998 2.8500781
16.466024 13.847422 1.8850898
16.551863 15.371231 1.4041784
17.071451 17.299192 3.3521409
16.76506 18.717297 2.8267689
16.463026 13.673326 1.8751059
16.541742 15.173867 1.3953947
17.071022 17.087763 3.3314056
16.795404 18.521235 2.81267
16.482306 13.519304 1.8678182
16.556437 15.001319 1.3888433
17.083868 16.892044 3.3136232
16.792345 18.291059 2.7933099
16.463333 13.335608 1.8563607
16.585461 14.843325 1.3836117
17.072872 16.675241 3.2915821
16.785206 18.059584 2.7736366
16.470304 13.174709 1.8479964
16.553022 14.632372 1.3733898
17.057013 16.456461 3.2689948
16.767288 17.819778 2.7525563
16.477249 13.015279 1.8397803
16.565134 14.462985 1.3670058
17.03828 16.237717 3.2462487
16.788485 17.624359 2.7382314
16.495926 12.866451 1.833016
16.581814 14.299199 1.3611162
17.043451 16.044243 3.228416
16.769196 17.389202 2.7176311
16.49654 12.704904 1.8243877
16.583977 14.124566 1.354154
17.054852 15.858724 3.2120826
16.750645 17.15801 2.6975121
16.496891 12.544665 1.8158792
16.585773 13.951413 1.3472852
17.035881 15.647274 3.190367
16.78183 16.980253 2.6857045
16.508564 12.394413 1.8087589
16.596416 13.787372 1.3412524
17.057301 15.475068 3.1765358
16.774017 16.765335 2.6679406
16.482126 12.217149 1.7976151
16.59902 13.618263 1.3346846
17.049015 15.277889 3.1516352
16.758202 16.545231 2.6492281
16.497229 12.072207 1.7911494
16.585361 13.437641 1.3269315
17.050888 15.091959 3.1348035
16.751482 16.336838 2.6322691
16.486408 11.909654 1.7820069
16.595522 13.278034 1.3212011
17.029718 14.887873 3.1160116
16.742514 16.128845 2.6152599
16.503736 11.76874 1.776041
16.604631 13.119029 1.3154929
17.006645 14.684573 3.0952442
16.760321 15.948882 2.6027055
16.49267 11.608853 1.767151
16.597555 12.94882 1.3086129
17.023338 14.517615 3.0820117
16.752918 15.747095 2.5865026
16.48151 11.450412 1.7583941
16.622488 12.804978 1.3043594
17.019543 14.334935 3.0653419
16.729914 15.533228 2.5681872
16.515629 11.3245 1.7545877
16.622169 12.64298 1.2982225
17.027714 14.164133 3.0511031
16.753345 15.364651 2.5572636
16.509958 11.172302 1.7466694
16.6509 12.504303 1.2944496
17.009605 13.973378 3.0324378
16.747881 15.1715 2.542172
16.500481 11.018888 1.738481
16.659628 12.351717 1.2892119
17.014727 13.803602 3.018194
16.744789 14.982672 2.5277004
16.504114 10.875482 1.7318003
16.666626 12.199141 1.2839365
17.005909 13.62428 3.0017443
16.736399 14.791264 2.5126863
16.507439 10.732986 1.7252063
16.650499 12.031136 1.2769831
17.012882 13.459311 2.9883413
16.740784 14.613172 2.4998355
16.515614 10.594693 1.7192341
16.683647 11.899955 1.2739013
16.998665 13.279297 2.9714754
16.735447 14.428541 2.4857712
16.50333 10.444437 1.711252
16.684052 11.74646 1.2684048
16.997606 13.111325 2.9571714
16.741259 14.255415 2.4735956
16.511148 10.308044 1.705472
16.691078 11.598883 1.2635046
16.968817 12.923828 2.9383113
16.727486 14.067546 2.4587605
16.503952 10.16335 1.6982552
16.684963 11.44346 1.2577026
16.980833 12.769111 2.9267695
16.741957 13.905231 2.4482996
16.508047 10.026691 1.6923139
16.689371 11.296536 1.2527864
17.004999 12.624688 2.9175282
16.740484 13.731309 2.4357171
16.489889 9.8776665 1.6842074
16.69397 11.150902 1.247972
16.974802 12.441437 2.899195
16.73764 13.558037 2.4231536
16.51334 9.7545347 1.6804576
16.709623 11.013688 1.2440668
16.991419 12.294066 2.8890944
16.752213 13.400444 2.4133139
16.528524 9.6271906 1.6759599
16.736403 10.884622 1.2410645
16.995569 12.130949 2.8799698
16.727386 13.216608 2.4005105
16.532431 9.4939985 1.6672689
16.701235 10.709838 1.2313292
16.992414 11.971998 2.8669331
16.73391 13.055787 2.389905
16.514086 9.3491879 1.6596022
16.71628 10.575304 1.2276313
16.99538 11.818712 2.8551443
16.736942 12.893728 2.3789942
16.53594 9.2280397 1.6560768
16.747627 10.451801 1.2252005
16.985332 11.657758 2.8413858
16.722155 12.719604 2.3657544
16.503103 9.0773706 1.6471792
16.749887 10.310948 1.2207143
16.985147 11.504958 2.8294921
16.722546 12.558676 2.3548632
16.525871 8.9582548 1.643934
16.738646 10.162932 1.2153276
16.974234 11.346255 2.8160238
16.725269 12.40095 2.3444874
16.540623 8.835371 1.6399778
16.73703 10.021918 1.2107227
16.987076 11.20465 2.8043747
16.749605 12.26044 2.3373091
16.524687 8.6969585 1.6330761
16.768789 9.90166 1.2086022
16.978193 11.04989 2.7916622
16.714199 12.077718 2.3219831
16.518671 8.5647745 1.6272573
16.766117 9.761837 1.2040699
16.970064 10.896955 2.7815788
16.712301 11.920944 2.3115144
16.5142 8.4342918 1.6216881
16.770134 9.6268797 1.2000934
16.990923 10.763682 2.7741201
16.737402 11.784567 2.3049412
16.526934 8.3133335 1.6178989
16.784615 9.498745 1.1969362
16.978203 10.610203 2.7613618
16.723289 11.621807 2.2931342
16.553841 8.1999846 1.6155769
16.800688 9.3722076 1.1939591
16.979506 10.466694 2.7510762
16.703444 11.456671 2.2807307
16.530981 8.0627203 1.6084874
16.808903 9.2420149 1.1904904
16.983789 10.326066 2.7414529
16.728941 11.323853 2.274682
16.515074 7.9298921 1.6021749
16.810011 9.1087475 1.186588
16.988182 10.186495 2.7320213
16.727594 11.17389 2.2651331
16.547228 7.8207555 1.6006085
16.797594 8.9691286 1.1818045
16.96483 10.031487 2.7183161
16.720079 11.021103 2.254916
16.519657 7.6840768 1.593351
16.81946 8.848608 1.1795007
16.974493 9.8971348 2.7100821
16.731535 10.881976 2.2474136
16.547564 7.573904 1.5915301
16.823265 8.7192364 1.1759934
16.983536 9.7702627 2.6990845
16.730701 10.732873 2.2361248
16.540333 7.4482694 1.5894045
16.826208 8.5961981 1.174571
16.995523 9.6388502 2.6915398
16.718729 10.580956 2.225805
16.539278 7.326067 1.5849537
16.816111 8.4613314 1.1702198
16.981354 9.4935789 2.6800199
16.723881 10.441051 2.2179198
16.531166 7.2014656 1.5799119
16.8148 8.3317728 1.1665491
16.973841 9.3531427 2.6697266
16.731506 10.303678 2.210505
16.530396 7.0807719 1.5756562
16.817657 8.2050476 1.1632323
16.978399 9.2202988 2.6614947
16.747019 10.172033 2.2042668
16.565643 6.9758887 1.5749063
16.827915 8.0826006 1.1604898
16.998762 9.0967407 2.6558869
16.738626 10.026856 2.1950228
16.55619 6.8526125 1.5699805
16.855661 7.9690142 1.1590092
16.966583 8.9460382 2.6422331
16.729004 9.882122 2.1857684
16.544294 6.729084 1.5649078
16.869129 7.849103 1.1566018
16.991486 8.8263521 2.6376271
16.737988 9.7493868 2.1790848
16.558832 6.6168785 1.5624131
16.846199 7.7130446 1.1517633
16.995981 8.696681 2.629992
16.741308 9.614234 2.1717961
16.557964 6.4989963 1.558539
16.883989 7.6053805 1.1511346
16.957401 8.5460567 2.6158583
16.705946 9.4580898 2.1596394
16.559515 6.3826237 1.5549693
16.875755 7.4774537 1.1474234
16.991568 8.4329376 2.6130977
16.73036 9.3368196 2.1553485
16.582493 6.2748895 1.5534823
16.877144 7.3545156 1.1444279
16.975763 8.2956667 2.6027899
16.752266 9.2146978 2.150846
16.581654 6.1585283 1.5498344
16.886051 7.2354383 1.1420001
16.979929 8.1690187 2.5956943
16.733255 9.0709505 2.1412187
16.569145 6.0384526 1.5451732
16.88899 7.1143608 1.1392249
16.989094 8.045433 2.5895002
16.716778 8.92974 2.1320586
16.565474 5.9222255 1.5414128
16.890326 6.9932089 1.1363991
16.968895 7.9087648 2.5789759
16.725557 8.802949 2.1262493
16.591616 5.8170052 1.540495
16.901316 6.8765831 1.1342784
16.988533 7.7913942 2.5746462
16.737957 8.6787434 2.121016
16.587376 5.7014728 1.5368243
16.915308 6.7616019 1.1324116
16.973598 7.6588421 2.5652125
16.735224 8.5474443 2.1139836
16.577164 5.5844674 1.5326746
16.895281 6.633657 1.1283249
16.977757 7.5356784 2.5588045
16.750753 8.4261875 2.1093748
16.585974 5.4743471 1.5303546
16.925676 6.5260124 1.1276592
16.950064 7.3992295 2.5477405
16.725805 8.2854328 2.0997913
16.585236 5.3614788 1.5272223
16.924519 6.4065604 1.1249418
17.016109 7.3040857 2.5508831
16.752462 8.1710091 2.0968041
16.599802 5.2539091 1.5255663
16.906769 6.2815118 1.1211791
16.997068 7.1727266 2.5413828
16.764585 8.049962 2.0920999
16.57432 5.1341734 1.5203005
16.924902 6.1703305 1.1198497
16.995251 7.0494223 2.5345957
16.718761 7.9020901 2.0802913
16.598888 5.0303721 1.5196944
16.929356 6.0545321 1.1176652
16.980988 6.9216943 2.5260875
16.749527 7.7912598 2.0781317
16.607021 4.921783 1.5176455
16.925192 5.9361625 1.1149646
16.968393 6.7954459 2.5179636
16.74439 7.6642513 2.0716207
16.613079 4.8128886 1.5154718
16.938711 5.8244343 1.1134799
17.007086 6.6901464 2.5175662
16.747713 7.5418262 2.0662675
16.611366 4.7021065 1.512655
16.916248 5.7008839 1.109683
16.983559 6.5608439 2.5080767
16.74618 7.4178853 2.0604241
16.604809 4.5903902 1.5094647
16.941622 5.593914 1.1090751
16.99794 6.4468188 2.5043118
16.726763 7.2868423 2.0524948
16.618561 4.4846139 1.5081849
16.973728 5.4892421 1.108951
16.975168 6.3193159 2.4951968
16.765816 7.1817832 2.051841
16.599016 4.3702512 1.5039493
16.95858 5.3696303 1.1057879
17.0061 6.2122912 2.4940937
16.751928 7.054503 2.0448055
16.60779 4.2637677 1.5023454
16.975641 5.2606497 1.1047747
16.9753 6.0832443 2.4840555
16.756058 6.9355049 2.0400765
16.625441 4.1597323 1.5016049
16.990963 5.1513457 1.1036941
17.019119 5.9813662 2.4850504
16.76049 6.817184 2.0354848
16.604408 4.0463734 1.4974345
16.993629 5.0385079 1.1018382
16.97929 5.8505659 2.4739461
16.763052 6.6986489 2.030766
16.637529 3.9464557 1.4982095
16.99287 4.9250546 1.0998089
17.004696 5.7428379 2.4724672
16.756567 6.5771127 2.025053
16.608019 3.8319716 1.4934067
17.028645 4.8223591 1.1001884
16.993761 5.6232181 2.4658139
16.764454 6.4617796 2.0211768
16.613659 3.7260559 1.4918298
17.01062 4.7047029 1.097138
16.980846 5.5035763 2.4589937
16.761532 6.342802 2.0160942
16.632172 3.6231668 1.4914677
17.030634 4.5979347 1.0965886
17.020716 5.4013166 2.4599214
16.759214 6.224638 2.0111833
16.638859 3.5178256 1.4901038
17.034515 4.4870257 1.0950451
17.014027 5.2845063 2.4542224
16.764528 6.1098189 2.0072844
16.62936 3.4093566 1.4873515
17.034227 4.3753562 1.0932802
16.991192 5.1633153 2.4463122
16.769262 5.9952416 2.0034087
16.632584 3.3038039 1.4857988
17.062937 4.2713003 1.0934203
17.009552 5.0550985 2.4444437
16.751989 5.8733921 1.997002
16.636215 3.1985464 1.484342
17.044584 4.1557374 1.0905895
16.986506 4.9350204 2.436734
16.774841 5.7660689 1.9954709
16.65514 3.0963366 1.4843074
17.076687 4.0527186 1.0910319
17.004999 4.827445 2.4350922
16.791857 5.6569519 1.9933285
16.654606 2.9906328 1.4825965
17.072477 3.9412239 1.0891974
16.989771 4.7106671 2.4287264
16.781588 5.5390701 1.9880375
16.631575 2.8812716 1.4789445
17.090343 3.8350494 1.0888155
17.016588 4.6058526 2.4284742
16.785192 5.4262762 1.9844826
16.641333 2.7778976 1.4782689
17.10334 3.7278867 1.0881656
16.992081 4.483408 2.4237537
16.77993 5.3127599 1.9811937
16.645363 2.6708858 1.4760901
17.084993 3.608469 1.0858943
17.007431 4.3760161 2.4220679
16.769073 5.196332 1.9761097
16.637964 2.5650826 1.4740105
17.123749 3.5070386 1.0869694
16.999081 4.2628307 2.4171081
16.782804 5.087934 1.9740119
16.657944 2.4636188 1.4744136
17.101368 3.3932569 1.0842067
17.044035 4.1631165 2.4198227
16.789482 4.9776778 1.9711676
16.640324 2.3567696 1.4715464
17.100128 3.2840858 1.0828301
17.031836 4.054821 2.4144459
16.792068 4.8659253 1.966188
16.671778 2.26495 1.4631574
17.145296 3.191448 1.0779487
17.011538 3.939851 2.4080963
16.803612 4.7577043 1.9640845
16.646757 2.1576076 1.4597721
17.170572 3.0872681 1.0783266
17.027546 3.8336294 2.4019852
16.796173 4.6444678 1.9598956
16.651201 2.0543783 1.4654225
17.137505 2.9728868 1.0818005
17.035564 3.7257574 2.3998461
16.805954 4.5363536 1.957752
16.665152 1.952364 1.4655683
17.158554 2.8682008 1.0819979
17.044222 3.6130042 2.3950269
16.798872 4.4246593 1.9554071
16.659693 1.8402406 1.467574
17.165466 2.7536092 1.0811073
17.019203 3.4987204 2.3884497
16.804995 4.3161807 1.9530003
16.658566 1.7367219 1.466508
17.16877 2.6461871 1.0802723
17.05007 3.3961625 2.389812
16.791849 4.203145 1.9484383
16.660248 1.633625 1.4657463
17.165493 2.5379541 1.079066
17.045835 3.2867084 2.3863463
16.807192 4.0975633 1.9472647
16.67071 1.5314381 1.4658124
17.201862 2.4355712 1.0803925
17.02755 3.1800976 2.3838465
16.808689 3.9882083 1.9428977
16.682676 1.4372708 1.4625419
17.189325 2.3338442 1.0789138
17.035635 3.0735548 2.3822932
16.797836 3.8769178 1.9388573
16.650593 1.3316346 1.4589854
17.177412 2.2249722 1.0772887
17.037207 2.9660149 2.3772256
16.802563 3.7695699 1.9383435
16.683157 1.231267 1.4647291
17.193542 2.1198773 1.0773021
17.053333 2.8611267 2.3769815
16.804838 3.6619246 1.9359773
16.659662 1.126799 1.4620317
17.064653 2.7554801 2.3856692
16.809767 3.5511348 1.9291946
16.656048 1.023928 1.4611355
17.059454 2.647341 2.382627
16.820761 3.4457784 1.9279935
16.670795 0.92219478 1.4619055
17.065737 2.5411808 2.3812816
16.808939 3.3360233 1.924256
16.686556 0.8203994 1.4628185
17.054186 2.4325938 2.3775427
16.828356 3.2326818 1.9241718
16.686823 0.71780568 1.4624285
17.06798 2.3277948 2.3774292
16.843195 3.1284945 1.9236372
16.667109 0.61452603 1.4603426
17.069679 2.2214282 2.3757229
16.823557 3.018178 1.9192432
16.648235 0.51156086 1.4583864
17.066692 2.1146295 2.3734565
16.832865 2.9133542 1.9182297
16.690639 0.41037267 1.4618531
17.071301 2.0089238 2.3723383
16.825861 2.8059187 1.9154335
16.679802 0.3077125 1.460711
17.06249 1.9018183 2.3599284
16.849823 2.7037573 1.9162365
16.653162 0.20501402 1.4582403
17.070621 1.7967503 2.3594837
16.852568 2.5982325 1.9146997
16.68107 0.10299479 1.4606013
17.074547 1.6913018 2.3680613
16.85582 2.4929481 1.9132951
16.680611 0.0006396934 1.4605333
17.079332 1.586013 2.367331
16.844721 2.3857822 1.9103378
16.678745 -0.10170115 1.460397
17.112827 1.4832741 2.3706675
16.855438 2.2818923 1.9099294
16.692699 -0.20422027 1.461701
17.09536 1.3761309 2.3670332
16.863663 2.177721 1.9093113
16.686632 -0.30655825 1.4613069
17.110861 1.2717582 2.3680546
16.848207 2.070704 1.9060868
16.69628 -0.40922999 1.4623442
17.111856 1.1663021 2.3671572
16.851227 1.9661928 1.9050275
17.094154 1.0547447 2.3558214
16.853224 1.8655343 1.9086208
17.107889 0.95025849 2.3568661
16.874266 1.7631257 1.9097428
17.120415 0.84561515 2.3578324
16.848576 1.6559969 1.9056495
17.124918 0.74053454 2.3577824
16.859646 1.5526975 1.9057879
17.094334 0.63415295 2.3529916
16.885456 1.4506457 1.9076635
17.115135 0.52978557 2.3553631
16.875965 1.3455701 1.9056226
