# .PCD v0.7 - Point Cloud Data file format
VERSION 0.7
FIELDS x y z
SIZE 4 4 4
TYPE F F F
COUNT 1 1 1
WIDTH 1550
HEIGHT 1
VIEWPOINT 0 0 0 1 0 0 0
POINTS 1550
DATA ascii
-17.249914 -0.10027137 1.4993551
-17.279411 0.0055807279 1.5018935
-17.257437 0.11146579 1.5000148
-17.269783 0.21752183 1.5011756
-17.254536 0.3232289 1.4999944
-17.23888 0.42876297 1.4988339
-17.272181 0.53565127 1.5019867
-17.257013 0.64119226 1.5009817
-17.238173 0.74643618 1.4997131
-17.753922 -0.10497895 1.1050899
-17.244333 0.85274106 1.5006762
-17.743137 0.0039537731 1.1043993
-17.242725 0.95875406 1.5010197
-17.7689 0.11298995 1.1060252
-17.24505 1.0650626 1.5084146
-17.766243 0.22199145 1.1018217
-17.219908 1.1696147 1.5068148
-17.738037 0.33050525 1.1001774
-17.239315 1.277246 1.5091704
-17.749651 0.43968412 1.1010444
-17.227329 1.3826936 1.5088353
-17.728569 0.54802799 1.0999246
-17.231897 1.4895293 1.5100076
-17.738451 0.65730155 1.1007671
-17.802877 -0.11829966 2.4509234
-17.58721 -0.96679229 1.9845345
-17.235128 1.5964102 1.5111207
-17.756592 0.76710296 1.1021643
-17.808323 -0.0090633016 2.4516194
-17.5905 -0.8587479 1.9842739
-17.237236 1.7033416 1.5121933
-17.740334 0.87548774 1.1014677
-17.768217 0.099975549 2.4461367
-17.568644 -0.74965489 1.9812524
-17.237217 1.8102051 1.5131377
-17.728333 0.9839747 1.1010768
-17.764658 0.208967 2.4457772
-17.600452 -0.64284712 1.9843572
-17.22683 1.9160529 1.5132294
-17.727093 1.093052 1.1013956
-17.799583 0.31861937 2.4508085
-17.559547 -0.5334878 1.9793392
-17.228558 2.0233366 1.5144433
-17.707785 1.2009711 1.1006333
-17.777514 0.42735437 2.4480844
-17.549854 -0.42542776 1.977915
-17.231766 2.1309836 1.5158461
-17.729471 1.311776 1.1024606
-17.780462 0.53660566 2.4488978
-17.551065 -0.31771618 1.9777944
-17.231855 2.2384281 1.5170336
-17.71324 1.4199086 1.1019725
-17.7402 0.64436406 2.4438512
-17.540777 -0.20987615 1.9764529
-17.228756 2.3456111 1.5179992
-17.72027 1.5299565 1.1029731
-17.772362 0.75475198 2.4488738
-17.561068 -0.10235639 1.9786311
-17.218143 2.4518654 1.5183612
-17.701494 1.6378196 1.1024091
-17.747166 0.86280382 2.4460855
-17.556934 0.00539409 1.978132
-17.232643 2.5619085 1.5209974
-17.675928 1.7449005 1.101463
-17.759491 0.97266561 2.4485605
-17.510159 0.11282256 1.9729024
-17.21314 2.6670623 1.5206919
-17.685095 1.8554454 1.1027229
-17.749601 1.0852561 2.4480982
-17.538414 0.22062935 1.9762014
-17.213781 2.7754242 1.5222243
-17.722376 1.9693693 1.10578
-17.745255 1.1943235 2.4484634
-17.541952 0.32833692 1.97679
-17.199018 2.8814278 1.5224538
-17.690168 2.075753 1.1045445
-17.7377 1.3031921 2.448478
-17.537851 0.43592283 1.9765922
-17.223223 2.9942429 1.5261939
-17.681583 2.1848128 1.1048247
-17.719582 1.411225 2.4471266
-17.532896 0.54346055 1.9763722
-17.183908 3.0961521 1.5243649
-17.66997 2.2935402 1.1049576
-17.741545 1.5225805 2.4514036
-17.506618 0.65019059 1.9738226
-17.194113 3.2070396 1.5269871
-17.644327 2.4003894 1.1042544
-17.738968 1.6320654 2.4523854
-17.518469 0.75829715 1.9756461
-17.212784 3.3199396 1.5304255
-17.624779 2.5079699 1.1039733
-17.717516 1.7397889 2.4508493
-17.499323 0.8650744 1.9740486
-17.191513 3.425374 1.5303742
-17.609133 2.6160772 1.1039778
-17.724325 1.8503293 2.4533155
-17.520945 0.97394753 1.9771246
-17.221395 3.5413282 1.5349396
-17.634932 2.7306077 1.106625
-17.734125 1.9614257 2.4562917
-17.496323 1.080305 1.9750568
-17.193159 3.6456194 1.5343879
-17.622965 2.8395872 1.1069463
-17.700495 2.0677199 2.4533448
-17.494646 1.187999 1.9756534
-17.184559 3.7541254 1.5356474
-17.598934 2.9466162 1.106552
-17.70586 2.1785517 2.4558949
-17.499268 1.2962288 1.9770364
-17.188383 3.8656104 1.5380796
-17.635344 3.0640707 1.1100024
-17.708939 2.2893209 2.4582238
-17.500193 1.4043171 1.9780769
-17.191895 3.9773786 1.5405488
-17.615736 3.1721363 1.1099725
-17.694605 2.3979447 2.4582307
-17.501575 1.5125626 1.9792451
-17.191265 4.0885229 1.5427114
-17.604643 3.2817829 1.1105214
-17.722694 2.5125873 2.4642284
-17.486118 1.6193807 1.9785835
-17.200598 4.2024179 1.5458338
-17.577456 3.3884463 1.1100972
-17.689669 2.6187234 2.4618242
-17.468666 1.7259334 1.9777699
-17.190163 4.3118119 1.5472447
-17.592695 3.5034776 1.1123964
-17.668486 2.7264781 2.461158
-17.492573 1.8367437 1.9817152
-17.204212 4.4277163 1.5509254
-17.594795 3.6162763 1.113911
-17.705769 2.8435669 2.4687355
-17.519228 1.948296 1.9860519
-17.192875 4.5374599 1.552384
-17.564014 3.7224174 1.1133875
-17.720232 2.9575357 2.4732361
-17.480566 2.052654 1.9830595
-17.182941 4.6477995 1.5540329
-17.565857 3.8355808 1.1149753
-17.684477 3.0632176 2.4708226
-17.49543 2.1633105 1.9862143
-17.181572 4.760757 1.5565217
-17.547447 3.9445169 1.115322
-17.686728 3.1755085 2.4738123
-17.478825 2.2702296 1.985873
-17.198458 4.879262 1.5607344
-17.550787 4.0585575 1.1170961
-17.677176 3.285881 2.4752502
-17.447044 2.3750503 1.9838808
-17.167683 4.9845448 1.5606875
-17.524574 4.1659384 1.1170336
-17.69569 3.4017837 2.4807189
-17.472481 2.4878025 1.9884715
-17.156687 5.0957036 1.562501
-17.538395 4.2830873 1.1195687
-17.666435 3.5086999 2.479589
-17.462864 2.5958536 1.9891522
-17.18714 5.2197218 1.5681617
-17.531008 4.3954406 1.1207978
-17.689995 3.6263447 2.4859719
-17.452967 2.7039404 1.9898775
-17.175438 5.3314919 1.5700494
-17.54117 4.5125637 1.1231966
-17.664701 3.7342474 2.4855907
-17.43025 2.8100448 1.9892157
-17.167349 5.4446907 1.5723343
-17.530844 4.6247768 1.1243312
-17.664701 3.8476293 2.4888659
-17.463089 2.9253864 1.9949745
-17.178715 5.5645337 1.5764729
-17.527657 4.7391577 1.1259706
-17.672239 3.9630051 2.4992681
-17.450649 3.033498 1.9962703
-17.160597 5.6752429 1.5745351
-17.54393 4.8592644 1.130843
-17.678984 4.078608 2.5037141
-17.443844 3.1427031 1.99766
-17.151606 5.7892594 1.5769397
-17.523479 4.9695706 1.131469
-17.651817 4.1865745 2.4974868
-17.432035 3.2511327 1.9979259
-17.170673 5.9133024 1.5854566
-17.52442 5.0862184 1.1315861
-17.6693 4.3054061 2.5036509
-17.453106 3.3660073 2.0026703
-17.177563 6.0338273 1.5894815
-17.514318 5.2000155 1.1329728
-17.665735 4.4195428 2.5069413
-17.430325 3.4726758 2.0024636
-17.162651 6.1471481 1.5915617
-17.505066 5.3143611 1.1344622
-17.65321 4.5316858 2.5090625
-17.43716 3.5854111 2.0057385
-17.154554 6.2632737 1.5943449
-17.509716 5.4333344 1.1369029
-17.657974 4.6485806 2.5146899
-17.433969 3.6963942 2.008101
-17.153526 6.3824515 1.5908128
-17.504751 5.5497704 1.1430098
-17.641678 4.7602296 2.5164816
-17.400076 3.80092 2.0068457
-17.137335 6.4964142 1.592978
-17.504061 5.6679826 1.1452141
-17.642056 4.8766575 2.5207562
-17.423149 3.9181204 2.0122416
-17.146212 6.6203833 1.597549
-17.49106 5.782588 1.1466634
-17.653835 4.9967127 2.5267725
-17.425129 4.0310493 2.0152891
-17.185247 6.7569132 1.6050189
-17.490309 5.9016323 1.1489666
-17.677622 5.1208096 2.5346272
-17.421268 4.1429343 2.0177448
-17.161808 6.869576 1.6067362
-17.479643 6.0177488 1.1506699
-17.66781 5.2356839 2.5377789
-17.403799 4.2517738 2.0187049
-17.141811 6.9839067 1.6088458
-17.471712 6.1351848 1.1526042
-17.626623 5.3413477 2.5365226
-17.425093 4.3704481 2.0242474
-17.1467 7.1088824 1.613368
-17.478006 6.2581248 1.1555312
-17.636431 5.4626946 2.5427096
-17.442453 4.4887376 2.0294254
-17.147415 7.2327957 1.6175808
-17.462297 6.373652 1.1570562
-17.630922 5.5797763 2.5468035
-17.393871 4.5902128 2.0270119
-17.147749 7.3571982 1.6218405
-17.468245 6.4975553 1.1600702
-17.633692 5.6999226 2.5522077
-17.414976 4.7102675 2.0328014
-17.132322 7.4753833 1.6246891
-17.458904 6.6163106 1.162124
-17.625223 5.8168659 2.5560997
-17.425617 4.8280826 2.0374629
-17.137064 7.6029606 1.6295321
-17.438044 6.7310572 1.1634628
-17.615314 5.932054 2.5603659
-17.410395 4.9359083 2.0395648
-17.14467 7.7254443 1.6445569
-17.436646 6.8550191 1.1686258
-17.638031 6.0604544 2.5690246
-17.397823 5.0478783 2.041682
-17.14699 7.8534174 1.6493706
-17.430613 6.9764304 1.1710682
-17.655872 6.1879673 2.577105
-17.412617 5.1682119 2.0471008
-17.129314 7.9728289 1.6523448
-17.441273 7.1051664 1.1746916
-17.634043 6.3020725 2.5795143
-17.407732 5.2831984 2.0502994
-17.131899 8.102294 1.6573585
-17.417839 7.2205458 1.1760751
-17.613243 6.4167814 2.5821826
-17.387949 5.3939319 2.0518289
-17.123407 8.2272234 1.6613898
-17.451963 7.3604999 1.1814064
-17.630577 6.5459108 2.5905635
-17.387621 5.5110106 2.0557418
-17.136641 8.3633881 1.6676213
-17.40069 7.4649649 1.1810141
-17.615376 6.6635356 2.5942888
-17.395597 5.6312304 2.0607314
-17.13406 8.4926968 1.67241
-17.411173 7.596293 1.1848668
-17.603264 6.7827115 2.5985858
-17.37113 5.741303 2.0619671
-17.118702 8.6163301 1.6760398
-17.41312 7.7246699 1.1882025
-17.619646 6.9134831 2.6072171
-17.395222 5.8679032 2.069062
-17.113661 8.7458124 1.6807685
-17.392628 7.8436513 1.190066
-17.641479 7.0472651 2.616797
-17.383572 5.9830236 2.0720041
-17.116396 8.8800831 1.6863569
-17.394611 7.9733429 1.1935267
-17.627914 7.1675806 2.6212595
-17.378664 6.1008544 2.0758419
-17.11537 9.0132647 1.691673
-17.379293 8.0957317 1.1958618
-17.602482 7.283421 2.6240737
-17.38752 6.2240605 2.0814223
-17.104181 9.1418638 1.6960794
-17.404848 8.2379789 1.2010758
-17.62244 7.4186454 2.6337855
-17.388142 6.344914 2.086118
-17.125008 9.288537 1.7037641
-17.397728 8.3656578 1.2041041
-17.625038 7.5473833 2.6410456
-17.378181 6.4623804 2.0896409
-17.126009 9.4255362 1.7095859
-17.38879 8.4931164 1.2070695
-17.602451 7.6658626 2.6446598
-17.377155 6.5836487 2.0943358
-17.133945 9.5673475 1.7162058
-17.37324 8.6179466 1.2096378
-17.623816 7.8041606 2.655014
-17.371054 6.7035098 2.0985186
-17.11408 9.6944838 1.720142
-17.367779 8.748435 1.2129724
-17.616383 7.939106 2.6637392
-17.381903 6.8305211 2.1010394
-17.145302 9.8516102 1.7232176
-17.376934 8.8871412 1.2202216
-17.630299 8.0758896 2.673286
-17.377214 6.9520693 2.1055894
-17.115635 9.9747534 1.7263546
-17.32881 8.9970922 1.2206957
-17.620359 8.2025099 2.6793602
-17.373808 7.0746799 2.1103971
-17.126465 10.122351 1.7336793
-17.345329 9.141223 1.2257878
-17.602131 8.3258142 2.6843064
-17.373526 7.1991568 2.1156886
-17.11199 10.255989 1.7385516
-17.36253 9.2868557 1.231007
-17.604532 8.4595184 2.6925375
-17.380112 7.3271599 2.1219256
-17.107405 10.396447 1.7445343
-17.318474 9.4004097 1.2319499
-17.607439 8.5942965 2.7009969
-17.373083 7.4500709 2.1266086
-17.118864 10.547785 1.7522697
-17.328844 9.544158 1.2368304
-17.62962 8.7394724 2.7125742
-17.359911 7.5708637 2.1306427
-17.106436 10.685491 1.7576759
-17.343172 9.6912174 1.2420737
-17.607887 8.8637037 2.7175477
-17.384956 7.7090907 2.139482
-17.105289 10.831248 1.7643538
-17.313744 9.8146639 1.2442558
-17.618452 9.0049429 2.7276547
-17.335665 7.8148694 2.139277
-17.111828 10.98306 1.7719462
-17.306892 9.9515905 1.2481283
-17.64522 9.1556091 2.7404449
-17.359121 7.9539604 2.148154
-17.121433 11.138148 1.7799841
-17.315523 10.09843 1.2531958
-17.621305 9.2808743 2.7455232
-17.333471 8.0712576 2.1510677
-17.094938 11.270797 1.7843862
-17.311453 10.238921 1.2574246
-17.612972 9.4149847 2.7531743
-17.343756 8.2059145 2.1585519
-17.107229 11.43011 1.7929559
-17.292517 10.371469 1.2606479
-17.60507 9.5501108 2.7610471
-17.369432 8.3488808 2.168083
-17.063995 11.553295 1.7958207
-17.31072 10.527343 1.2666601
-17.605583 9.6906738 2.770401
-17.316158 8.4544563 2.1678672
-17.10111 11.732098 1.8072689
-17.288845 10.659902 1.2698216
-17.647938 9.8555622 2.7865293
-17.35013 8.6032772 2.1786883
-17.097383 11.884473 1.8145471
-17.282507 10.80291 1.2742006
-17.609377 9.976264 2.7900538
-17.365074 8.743844 2.1872609
-17.076204 12.025824 1.8200966
-17.261007 10.937335 1.2775395
-17.610664 10.11073 2.7962477
-17.327347 8.8585377 2.1893141
-17.088921 12.192324 1.8293916
-17.259378 11.085307 1.2824291
-17.616999 10.258604 2.8071954
-17.36437 9.0122862 2.200938
-17.075373 12.341459 1.8360133
-17.248896 11.228665 1.2867454
-17.622059 10.406864 2.8181241
-17.347662 9.1391649 2.2058864
-17.074551 12.501078 1.8441381
-17.272808 11.395739 1.2937212
-17.625158 10.555091 2.8289237
-17.343775 9.2735167 2.2125859
-17.075327 12.663308 1.8525791
-17.273527 11.548957 1.2990583
-17.606369 10.691159 2.8363841
-17.344223 9.4110575 2.2199683
-17.069876 12.822357 1.860489
-17.227238 11.671596 1.3009385
-17.618914 10.847302 2.8490739
-17.340607 9.5472851 2.2269619
-17.086643 12.999713 1.8709753
-17.239969 11.835207 1.3073593
-17.60284 10.986923 2.8573225
-17.334532 9.6830177 2.2337699
-17.072975 13.155491 1.8782824
-17.23214 11.986059 1.3123183
-17.645506 11.164586 2.8753138
-17.378443 9.8479347 2.2471728
-17.064192 13.316389 1.8862698
-17.230198 12.142258 1.3178196
-17.625515 11.303973 2.8833041
-17.356695 9.9768028 2.2522345
-17.051033 13.47527 1.8939195
-17.205399 12.283468 1.3216627
-17.622618 11.455329 2.8942745
-17.338552 10.108417 2.2578862
-17.077459 13.667216 1.9061337
-17.211864 12.448228 1.3280016
-17.617842 11.606621 2.9051318
-17.339048 10.251772 2.2660997
-17.069792 13.833755 1.9147162
-17.198771 12.600203 1.3329315
-17.627289 11.76858 2.9185426
-17.331408 10.391293 2.273391
-17.067854 14.006564 1.9241031
-17.209517 12.771082 1.3398124
-17.624996 11.924045 2.9302218
-17.32416 10.531995 2.2808743
-17.072594 14.186642 1.9344138
-17.204733 12.931988 1.3455924
-17.617876 12.077461 2.9413028
-17.368179 10.705262 2.295275
-17.064772 14.35806 1.9434735
-17.199659 13.094104 1.351454
-17.623705 12.241087 2.9547601
-17.338926 10.834601 2.3001516
-17.065525 14.538467 1.9536824
-17.206816 13.267108 1.3583872
-17.643099 12.415733 2.9707286
-17.356018 10.993931 2.3113246
-17.042486 14.700257 1.9613342
-17.171824 13.408932 1.3620944
-17.634508 12.572179 2.9832392
-17.312292 11.115665 2.3187411
-17.063911 14.902316 1.9812813
-17.186136 13.590683 1.3666486
-17.64045 12.74039 2.9974127
-17.361197 11.298105 2.3345323
-17.064489 15.088384 1.9920608
-17.170593 13.750472 1.3720962
-17.634981 12.901826 3.0098789
-17.351698 11.444093 2.3426538
-17.060911 15.272766 2.0025451
-17.169163 13.923092 1.3787827
-17.625189 13.061443 3.0218291
-17.375799 11.613606 2.3554842
-17.039511 15.442992 2.0111179
-17.177044 14.105067 1.3863399
-17.626038 13.230389 3.0358362
-17.362909 11.75976 2.3634744
-17.029621 15.625416 2.0212288
-17.151997 14.261604 1.391355
-17.653233 13.420936 3.0546465
-17.337471 11.89836 2.369905
-17.039467 15.828116 2.033886
-17.142775 14.432761 1.3977646
-17.629015 13.574018 3.0648105
-17.372349 12.079762 2.3847597
-17.046564 16.030682 2.0464358
-17.135668 14.607385 1.4044669
-17.636396 13.752896 3.0807071
-17.331129 12.209538 2.3893406
-17.032036 16.215094 2.0565977
-17.144184 14.797234 1.4125798
-17.641569 13.931841 3.0964847
-17.35754 12.388202 2.4034159
-17.035206 16.418552 2.0691061
-17.151497 14.988164 1.4207331
-17.632145 14.100919 3.1099586
-17.376238 12.56318 2.4166329
-17.020655 16.60718 2.0796766
-17.12578 15.152021 1.4262774
-17.660675 14.302285 3.1304111
-17.353535 12.709632 2.4242761
-17.05175 16.842979 2.0960639
-17.139063 15.352284 1.435202
-17.651089 14.47475 3.1443951
-17.352043 12.872861 2.4350564
-17.035339 17.034544 2.1068556
-17.13035 15.534979 1.4424275
-17.651026 14.656754 3.1603451
-17.360537 13.045069 2.4474351
-16.997169 17.206244 2.1151524
-17.101749 15.701348 1.4481045
-17.653345 14.842627 3.1770072
-17.357557 13.210245 2.458396
-17.029188 17.451546 2.1324222
-17.109314 15.902865 1.4569802
-17.674576 15.046555 3.1973836
-17.354424 13.376816 2.4695311
-17.025484 17.66329 2.1454897
-17.087011 16.078684 1.463455
-17.674704 15.234698 3.214257
-17.340427 13.536451 2.4793119
-17.037157 17.89385 2.1607563
-17.11351 16.302757 1.4742643
-17.663549 15.42762 3.2286544
-17.360151 13.72411 2.4896078
-17.000725 18.076395 2.1624999
-17.065956 16.45838 1.4822702
-17.68247 15.636445 3.2495892
-17.340752 13.882517 2.4989946
-17.004364 18.304026 2.1772082
-17.082396 16.677742 1.4925582
-17.662708 15.81315 3.2637277
-17.360884 14.074299 2.5142939
-16.99217 18.517471 2.1901538
-17.066948 16.868439 1.5002241
-17.692543 16.03652 3.2873611
-17.37207 14.260901 2.5285394
-16.981144 18.734928 2.2035084
-17.067974 17.077751 1.509497
-17.677361 16.221445 3.3029723
-17.357224 14.427895 2.5392163
-17.000015 18.988611 2.2210345
-17.032869 17.253067 1.5157266
-17.699125 16.442604 3.3258278
-17.34762 14.600828 2.5508699
-16.998335 19.222782 2.2361829
-17.044106 17.477652 1.5262407
-17.6894 16.636948 3.3431201
-17.37079 14.803369 2.567585
-16.99972 19.46372 2.2520344
-17.062819 17.71299 1.5376199
-17.696955 16.849882 3.3640244
-17.371315 14.988776 2.581208
-16.992012 19.697531 2.2669811
-17.043694 17.91181 1.5457716
-17.699402 17.060486 3.384325
-17.364088 15.1694 2.5939159
-16.993298 19.945166 2.283438
-17.033087 18.12204 1.5548655
-17.709848 17.281439 3.4065347
-17.366165 15.360112 2.6082566
-16.991192 20.192373 2.2997603
-17.037514 18.351095 1.565519
-17.719461 17.504353 3.4289789
-17.384405 15.567405 2.6252935
-16.966476 20.415983 2.3133271
-17.012217 18.550838 1.5736243
-17.798651 17.580048 0.94209927
-17.711435 17.712458 3.4483922
-17.381975 15.758471 2.6394789
-16.977118 20.685692 2.3320405
-16.996542 18.763586 1.5827945
-17.770649 17.769125 0.94637048
-17.722452 17.94232 3.4719067
-17.360313 15.933996 2.6509862
-16.95718 20.921869 2.3468921
-17.00531 19.006357 1.5944413
-17.768585 17.986444 0.95212013
-17.709105 18.150221 3.4910438
-17.398205 16.166576 2.67187
-16.98299 21.218561 2.368439
-17.000469 19.23719 1.6050248
-17.733624 18.172743 0.95620376
-17.73259 18.398806 3.5178628
-17.403906 16.372013 2.6881225
-16.975555 21.478092 2.3857362
-16.987526 19.461912 1.6150469
-17.697088 18.359337 0.96029013
-17.711761 18.604321 3.5363109
-17.39035 16.561567 2.701674
-16.966492 21.739506 2.4031646
-17.001459 19.720829 1.6278454
-17.679512 18.567778 0.96550035
-17.745003 18.854414 3.5652888
-17.374628 16.751089 2.7200761
-16.997564 22.057035 2.4352884
-16.992586 19.956844 1.6348971
-17.704447 18.823908 0.96162909
-17.36809 16.951641 2.735285
-17.009632 22.355068 2.456624
-16.982151 20.194323 1.6457843
-17.652821 19.001289 0.96513945
-17.746696 19.326017 3.6130104
-17.381823 17.174557 2.7539928
-17.003567 22.633959 2.4757595
-16.968771 20.431612 1.6566061
-17.648161 19.231585 0.97131813
-17.76339 19.584053 3.640805
-17.401423 17.406227 2.7739682
-16.98164 22.895981 2.4929757
-16.939415 20.652782 1.6660801
-17.632412 19.452686 0.97700238
-17.763309 19.827091 3.6656551
-17.395647 17.615309 2.790225
-17.037573 23.268438 2.5220995
-16.958847 20.93717 1.6805956
-17.593172 19.65037 0.98149061
-17.767578 20.078392 3.69189
-17.390177 17.827234 2.8068399
-17.004471 23.524696 2.5385189
-16.941185 21.179764 1.6916924
-17.550451 19.846361 0.98588258
-17.786644 20.350185 3.7217281
-17.391775 18.049124 2.8249202
-16.988977 23.809622 2.5579677
-16.922842 21.425022 1.702956
-17.528255 20.068062 0.99153417
-17.798868 20.618122 3.7506862
-17.39945 18.28026 2.8443327
-17.006136 24.14566 2.5828104
-16.930233 21.706894 1.7170708
-17.503242 20.289358 0.99714291
-17.77792 20.851151 3.7731619
-17.398521 18.505339 2.862689
-17.012442 24.472202 2.6065245
-16.906696 21.953167 1.7283131
-17.501368 20.540674 1.0041974
-17.40456 18.740866 2.8825488
-17.010984 24.793327 2.6295605
-16.913366 22.242828 1.7429142
-17.453667 20.741156 1.0087439
-17.387007 18.953882 2.898849
-17.024752 25.142712 2.6554866
-16.89554 22.504658 1.7552741
-17.448372 20.995018 1.0158643
-17.393473 19.19606 2.9195104
-17.020214 25.471266 2.6791067
-16.884653 22.779945 1.7686315
-17.404373 21.205435 1.020859
-17.394211 19.435219 2.9395959
-16.858643 23.039022 1.7806811
-17.413223 21.483679 1.0290909
-17.394897 19.677631 2.9600613
-17.03211 26.1789 2.7313454
-16.846851 23.321848 1.7945173
-17.39213 21.72887 1.0357044
-17.412746 19.943096 2.9838662
-17.034372 26.53718 2.7577689
-16.858889 23.642788 1.8112183
-17.402115 22.016905 1.0443243
-17.401564 20.178879 3.0031111
-17.02125 26.878111 2.7822926
-16.851751 23.942207 1.8262004
-17.383696 22.273169 1.0514004
-17.410116 20.441069 3.026176
-17.025003 27.252563 2.8101873
-16.852928 24.258772 1.842424
-17.365408 22.533451 1.0586371
-17.407942 20.69442 3.047812
-17.040609 27.653723 2.8407178
-16.836342 24.555075 1.8570472
-17.358074 22.812075 1.0667031
-17.424831 20.974413 3.0732441
-17.043369 28.042013 2.869808
-16.835039 24.87912 1.8737065
-17.37105 23.122171 1.0761991
-17.416054 21.227488 3.0946097
-17.062414 28.465406 2.9023695
-16.821609 25.19092 1.8893797
-17.321346 23.353031 1.0819769
-17.417625 21.497053 3.1182685
-17.060802 28.862865 2.9321659
-16.817953 25.523169 1.9065233
-17.308371 23.637289 1.0902058
-17.42717 21.780714 3.1438446
-16.808817 25.853189 1.9234347
-17.314617 23.952782 1.0998361
-17.427393 22.057081 3.168241
-17.084972 29.730707 2.9988029
-16.814466 26.212437 1.9424496
-17.285786 24.224588 1.1074257
-17.416946 22.3241 3.1911843
-17.067625 30.126932 3.0281479
-16.794531 26.538265 1.9589214
-17.306168 24.570631 1.1183693
-17.432842 22.629419 3.2194774
-17.096882 30.615074 3.0666101
-16.785639 26.887913 1.9770907
-17.27758 24.852566 1.1263554
-17.43865 22.926577 3.2464693
-17.085344 31.04031 3.0986452
-17.239779 25.12574 1.1339204
-17.435284 23.216421 3.2723014
-17.100748 31.52466 3.1364625
-16.799572 27.660166 2.018563
-17.231491 25.44696 1.1436238
-17.418802 23.493309 3.2962015
-16.775423 28.006281 2.0362713
-17.235189 25.791891 1.154351
-17.429867 23.812248 3.325882
-17.096266 32.460598 3.2084644
-16.768282 28.388056 2.0565097
-17.206167 26.093639 1.1631091
-17.42465 24.114185 3.3530574
-17.116852 32.989048 3.2502551
-16.773615 28.799179 2.0787976
-17.447615 24.460739 3.3862951
-17.126484 33.508972 3.291065
-16.765543 29.195774 2.0999594
-17.185968 26.772182 1.1838642
-17.447929 24.781422 3.4158041
-17.130919 34.031326 3.3319812
-16.781052 29.642473 2.1246431
-17.192211 27.146883 1.1957462
-17.443626 25.101089 3.438808
-16.747787 30.011772 2.1486795
-17.145744 27.444626 1.2186333
-17.435337 25.420597 3.4678581
-16.731474 30.419685 2.1704929
-17.129807 27.797241 1.2296002
-17.468794 25.807449 3.5059435
-17.151154 35.692608 3.4509072
-16.712044 30.830854 2.1924725
-17.108774 28.148369 1.2404652
-17.437555 26.104935 3.531755
-16.718973 31.300545 2.2185364
-17.114546 28.551115 1.2535622
-17.467379 26.500193 3.570662
-16.71154 31.753948 2.2433627
-17.469511 26.860668 3.6047215
-17.163483 37.469791 3.5915742
-17.055117 29.260342 1.2754154
-17.046719 29.662796 1.2883743
-17.483932 27.618576 3.677361
-17.172712 38.738583 3.6927121
-16.683432 33.167927 2.3211656
-17.026283 30.052588 1.3007423
-17.475578 27.983852 3.7116492
-17.172867 39.38953 3.7446475
-16.691696 33.697853 2.3510394
-17.006741 30.452259 1.3134997
-17.493153 28.398361 3.7523208
-16.658106 34.155361 2.3757825
-16.996922 30.878237 1.32735
-17.490084 28.787457 3.7894807
-17.170601 40.741924 3.8528924
-16.674828 34.728893 2.408514
-16.981506 31.303364 1.3411205
-17.495558 29.198711 3.8294132
-16.634293 35.196331 2.4338074
-16.954844 31.716997 1.354359
-17.535933 29.677608 3.8780353
-17.167459 42.173218 3.9680243
-16.641043 35.777225 2.4668686
-16.935799 32.154373 1.3685722
-17.530413 30.088289 3.9175704
-17.202097 43.012207 4.0369568
-16.627447 36.329254 2.4978499
-16.942196 32.650856 1.385253
-17.528526 30.513948 3.958914
-17.201483 43.788044 4.0997901
-16.621469 36.913074 2.5309308
-17.551109 30.991999 4.0068889
-17.196239 44.576488 4.1636529
-16.618351 37.519394 2.5654628
-16.916992 33.604698 1.4168061
-17.209141 45.438267 4.2492065
-17.558176 31.911514 4.1050401
-17.197224 46.261822 4.3162732
-16.561174 38.664852 2.6236045
-16.886864 34.595482 1.4325664
-17.566708 32.396095 4.1534309
-17.21978 47.207363 4.3945522
-16.560886 39.329212 2.6617393
-17.60602 32.949478 4.2104497
-17.244761 48.192337 4.4763088
-16.5455 39.976734 2.6986408
-16.87093 35.666626 1.4682373
-17.222567 49.077564 4.5486312
-16.54129 40.671036 2.7386069
-17.235823 50.097054 4.6332312
-16.849169 36.781708 1.5055145
-17.616558 34.481544 4.3640423
-17.236748 51.117172 4.7177062
-16.492388 42.021194 2.8156796
-16.829107 37.341354 1.524166
-17.652601 35.081749 4.4262133
-17.23914 52.17955 4.805902
-16.489429 42.783699 2.8599389
-16.815168 37.930019 1.5439532
-16.458818 43.497784 2.9008672
-16.797258 38.525925 1.5639849
-17.635748 36.146286 4.5328755
-17.281919 54.547352 5.0040731
-16.45492 44.306946 2.9480412
-16.769697 39.116108 1.5837367
-17.263155 55.672276 5.0974579
-16.439661 45.112076 2.9948437
-16.747234 39.735188 1.6046113
-17.686642 37.408623 4.6636062
-16.452873 46.024239 3.0486398
-16.759153 40.455269 1.6295066
-17.292982 58.287579 5.3170877
-16.42853 46.861294 3.0973506
-16.735836 41.110584 1.6517347
-17.315569 59.704777 5.4365721
-16.430716 47.805058 3.1530066
-16.704636 41.765972 1.6739172
-17.751493 39.407028 4.8711739
-16.435436 48.790672 3.2113013
-16.676764 42.449867 1.6971935
-17.766415 40.095325 4.942687
-17.336107 62.638981 5.6839528
-17.797337 40.83984 5.0118141
-17.362867 64.267029 5.8013525
-16.431412 50.832329 3.3398852
-16.640169 43.933369 1.7691567
-17.381113 65.93882 5.9425244
-16.632738 44.74062 1.7975203
-17.400084 67.693329 6.0909071
-16.589546 45.476845 1.822975
-16.454884 54.300442 3.5472496
-16.575514 46.319183 1.8526289
-16.466835 55.566059 3.6232584
-16.558298 47.181686 1.8830273
-21.632397 88.811729 -1.1102381
-16.460264 56.821381 3.698458
-16.544376 48.084251 1.9149612
-20.891703 88.118851 -1.0999531
-16.471184 58.192764 3.7810709
-20.302006 88.034569 -1.0973253
-16.463322 59.557125 3.8630834
-19.676252 87.777351 -1.0925938
-16.479729 61.073257 3.9547918
-19.066475 87.57119 -1.0885509
-16.461493 62.52858 4.0424142
-16.440125 51.886848 2.04971
-18.438831 87.260818 -1.083266
-18.955093 92.318489 8.2129364
-16.471676 64.163834 4.1415195
-16.406164 52.904865 2.0859091
-17.845016 87.089035 -1.0797539
-18.278105 91.879242 8.1637268
-16.389395 54.020248 2.125881
-17.282314 87.05587 -1.0780077
-19.049742 96.024223 -10.989695
-17.664778 91.734055 8.1410437
-16.488573 67.666939 4.3542423
-16.346596 55.093727 2.1641381
-17.777639 50.731682 0.67087591
-16.748009 87.16124 -1.0780195
-18.341169 95.51947 -10.918841
-18.150974 97.80098 18.767273
-17.124674 91.964783 8.1520405
-16.328571 56.297428 2.2074432
-17.706974 51.541168 0.68013096
-16.264185 87.538506 -1.0814309
-17.711174 95.395622 -10.892056
-18.910536 101.80367 -22.246754
-17.539909 97.851234 18.755911
-16.614744 92.372108 8.178957
-17.627182 52.352119 0.68939191
-15.755605 87.797371 -1.0834142
-17.132135 95.539505 -10.896276
-17.734146 98.844597 -21.575932
-18.324915 105.51025 31.516531
-16.953867 98.041969 18.772179
-16.173641 93.198296 8.2431669
-19.949169 88.956894 5.6996126
-17.581024 53.294125 0.7003628
-15.173462 87.643272 -1.0803434
-16.595577 95.931686 -10.929187
-17.295578 99.923622 -21.787888
-17.632158 105.35178 31.431274
-16.477335 98.896591 18.9161
-19.221552 88.244736 5.6332526
-16.228447 60.063358 2.3152535
-17.498951 54.16011 0.71148455
-14.911626 89.394394 -1.1007788
-16.160549 96.889595 -11.02702
-16.888803 101.1721 -22.020252
-18.321205 109.50458 -35.690838
-17.025042 105.70412 31.504637
-16.089792 100.36559 19.17783
-18.546566 87.731102 5.5930943
-16.20332 61.465675 2.3654313
-17.472525 55.234501 0.72417647
-16.418539 102.21277 -22.224411
-17.514252 108.77833 -35.418442
-16.526566 106.77856 31.794044
-17.936661 87.495712 5.5709658
-16.1856 62.963333 2.4191995
-13.133549 85.161682 -1.0465949
-18.81513 91.672485 -3.4843013
-17.046267 110.17511 -35.838505
-12.665299 85.369057 7.5475726
-17.382095 87.516708 5.5654068
-16.131645 64.389343 2.4701402
-12.501621 84.502975 -1.0375375
-18.146679 91.255096 -3.4641397
-19.509399 98.134972 -13.768696
-16.529549 111.35297 -36.187969
-18.552183 96.464958 16.027224
-12.002201 84.466637 7.4611363
-16.860914 87.705666 5.5707393
-16.085325 65.917603 2.5249341
-17.273867 58.318489 0.76031226
-11.971924 84.500748 -1.0365885
-17.561182 91.233688 -3.4591713
-18.560551 96.453041 -13.516481
-17.888983 96.19545 15.963907
-11.472854 84.45887 7.454092
-16.341 87.907303 5.5770721
-16.070694 67.657532 2.5877554
-17.213896 59.453278 0.77371514
-11.444413 84.507652 -1.0357924
-17.018471 91.433311 -3.4627156
-17.887924 96.132759 -13.455964
-18.628628 103.85615 28.194387
-17.299599 96.310066 15.965013
-10.960981 84.578331 7.4585586
-15.853048 88.294121 5.5953369
-17.142794 60.597099 0.7872169
-10.913103 84.478935 -1.0346001
-16.530502 91.94416 -3.4781554
-17.302935 96.269676 -13.460014
-18.276472 102.02261 -24.9709
-17.869659 103.26713 28.00419
-16.74802 96.643478 16.002945
-10.432875 84.571556 7.4521766
-15.301026 88.332176 5.5916934
-15.99337 71.207352 2.7158167
-10.394606 84.544815 -1.0346063
-16.777824 96.754158 -13.513104
-17.528332 101.42805 -24.798582
-17.243849 103.42379 28.017452
-16.268242 97.424248 16.115396
-9.8948059 84.472206 7.4379311
-17.062613 63.267708 0.81912875
-9.8687067 84.547516 -1.0338789
-16.302172 97.563507 -13.611914
-17.100721 102.70528 -25.106867
-16.719477 104.21675 28.203943
-9.3695602 84.470505 7.4325795
-13.938901 86.788589 5.482738
-17.036093 64.747025 0.83691239
-9.3416405 84.533134 -1.0329826
-17.820961 110.86583 -39.237808
-16.281021 105.62346 28.557064
-8.8514338 84.529785 7.4328766
-13.179366 85.40316 5.3900051
-8.8099632 84.466003 -1.0314823
-13.465634 87.123619 -3.2823055
-19.154394 93.424767 -5.9406633
-16.14711 104.90862 -25.595112
-19.036919 95.410477 13.39543
-8.2737017 84.492821 7.425458
-12.529626 84.483009 5.3263655
-16.41461 82.62693 3.1343629
-16.993769 67.915123 0.86953914
-8.3142185 84.513512 -1.0592065
-12.715188 85.820557 -3.2374442
-18.406914 92.675789 -5.897397
-8.698185 88.69278 -19.107643
-18.319302 94.842987 13.299722
-7.7493186 84.47879 7.4199066
-12.008224 84.538689 5.32513
-16.554457 86.091583 3.2618763
-16.923979 69.442886 0.88775337
-7.7916999 84.52166 -1.0586895
-12.086064 85.176018 -3.2102716
-17.810173 92.64267 -5.8882246
-8.0802279 87.781555 -9.9173737
-18.891142 98.061768 -16.290005
-8.0446882 87.556816 -18.851925
-8.0199661 87.22155 -28.160759
-19.189117 103.08501 25.278664
-17.696348 94.735924 13.269234
-7.2297721 84.512512 7.4188323
-11.479095 84.535789 5.3204107
-15.977712 85.932327 3.2520669
-7.2728276 84.566605 -1.0586735
-11.557128 85.203773 -3.2085845
-17.238827 92.736404 -5.8873482
-7.4849133 87.170959 -9.8430157
-18.03756 96.82563 -16.065969
-7.4496951 86.932236 -18.707254
-7.4437318 86.792229 -28.006872
-18.257744 101.54073 24.872036
-17.120092 94.872467 13.273395
-6.7097397 84.538452 7.417356
-10.944144 84.480812 5.312624
-15.46118 86.090233 3.254391
-16.73295 72.51609 0.92434603
-6.7447166 84.495865 -1.05725
-11.018227 85.150345 -3.2039666
-16.709736 93.064644 -5.9015656
-6.9107332 86.72374 -9.7875443
-17.445866 96.949814 -16.068508
-6.8839216 86.571045 -18.620087
-19.252745 106.91286 -29.064623
-6.8763051 86.399788 -27.866098
-17.594202 101.41938 24.815399
-16.608421 95.382217 13.330203
-6.1836247 84.478729 7.4086466
-10.416489 84.472702 5.3079948
-14.943 86.243233 3.2566471
-16.691753 74.418869 0.94727707
-6.2253604 84.509796 -1.0569276
-10.486444 85.131912 -3.2007978
-16.260778 93.823166 -5.9433208
-6.3006682 86.38295 -9.7440939
-16.911375 97.393005 -16.124521
-6.3215299 86.301407 -18.553261
-17.972393 103.61936 -28.137268
-6.3209562 86.145027 -27.770813
-18.394304 109.90018 38.892166
-17.010365 101.75748 24.87212
-5.665381 84.518448 7.4089427
-9.8949022 84.508781 5.3063469
-14.421536 86.381203 3.2584543
-16.679377 76.560493 0.97321671
-5.7078342 84.56321 -1.0571376
-9.9538431 85.108788 -3.1975715
-5.7620025 86.292542 -9.7297239
-16.461523 98.379807 -16.270868
-5.7774429 86.123459 -18.507032
-17.400455 104.11182 -28.241465
-5.7829199 86.043213 -27.726028
-17.653229 109.59879 38.746441
-16.505459 102.6046 25.053949
-5.1435513 84.500259 7.4044414
-9.3680973 84.49501 5.3017731
-13.738329 85.516258 3.2225864
-5.1777821 84.416122 -1.0548817
-9.4344921 85.195763 -3.1986043
-5.2248154 86.200943 -9.7155991
-15.98837 99.29129 -16.405083
-5.2390356 85.995544 -18.472292
-16.973421 105.53548 -28.59886
-5.2473674 85.954376 -27.686506
-17.029831 110.02425 38.859184
-16.154491 104.50834 25.49412
-4.6201649 84.442421 7.3967505
-8.8524532 84.579422 5.3035612
-16.634535 81.128998 1.0286177
-4.6627898 84.502007 -1.0555776
-8.9076843 85.214958 -3.1972125
-4.69207 86.162949 -9.7078886
-4.71418 86.079086 -18.483675
-16.48134 106.64565 -28.871754
-4.7168427 85.929962 -27.6688
-16.541267 111.38492 39.303165
-18.571592 93.501297 10.740605
-4.1053896 84.539856 7.4029393
-8.3300409 84.5989 5.3014779
-12.518497 84.53463 3.1795664
-16.603132 83.578918 1.0583683
-4.1407509 84.481415 -1.0549824
-8.3736162 85.168976 -3.1934943
-18.755678 94.362877 -8.3765631
-4.219636 86.329948 -9.7239094
-8.7502098 89.188446 -12.334229
-4.1984892 86.194641 -18.502705
-8.652977 88.519135 -21.453892
-4.1940908 85.982002 -27.676809
-8.6707211 88.135719 -30.912407
-17.930862 93.26667 10.700814
-3.5850623 84.527565 7.3997974
-7.8026643 84.56031 5.2959599
-11.991046 84.549706 3.1773059
-16.455582 85.580574 1.0824164
-3.6211526 84.478386 -1.0546473
-7.8462811 85.168938 -3.1916277
-18.095728 94.057274 -8.3394213
-3.6947198 86.468323 -9.7367582
-8.0526409 87.606918 -12.108451
-19.378956 100.54879 -19.307402
-3.6726141 86.291046 -18.518213
-8.0065756 87.444611 -21.181158
-3.6723082 86.14389 -27.721144
-8.0475836 87.295799 -30.599922
-18.621056 100.0535 21.851791
-17.347309 93.316093 10.694071
-3.0640967 84.486069 7.3943791
-7.2688069 84.433907 5.2851505
-11.458129 84.519157 3.173456
-15.982286 85.960243 1.0859578
-3.1040061 84.533676 -1.0550798
-7.3181639 85.152863 -3.1892827
-17.497547 94.055191 -8.3295593
-3.1718643 86.701889 -9.760684
-7.4605651 87.020424 -12.020836
-18.219669 97.75782 -18.74966
-3.1562195 86.672997 -18.595675
-7.4226117 86.938538 -21.047146
-3.151777 86.387054 -27.79265
-7.4548182 86.681053 -30.367825
-17.908583 99.61953 21.732603
-16.815208 93.648018 10.720083
-2.5455611 84.500641 7.3941483
-6.7500691 84.470375 5.2847409
-10.9256 84.481834 3.1694779
-15.461101 86.093208 1.0864185
-2.5855482 84.560646 -1.0551987
-6.7916327 85.147095 -3.1874456
-16.945215 94.300514 -8.3419218
-2.6488254 87.015892 -9.7940187
-6.8960195 86.681725 -11.967979
-17.556398 97.517303 -18.682518
-2.6334844 86.992714 -18.66045
-6.855444 86.558426 -20.944548
-2.6289723 86.645927 -27.870218
-6.8910961 86.32785 -30.228703
-18.749456 108.21381 35.280918
-17.310579 99.805885 21.749678
-16.34343 94.344894 10.788174
-2.0279617 84.553703 7.3975635
-6.2315998 84.509651 5.2847066
-10.400027 84.490448 3.1673474
-14.938358 86.219986 1.0868412
-2.0665057 84.523056 -1.054552
-6.2697501 85.179321 -3.187156
-16.434917 94.815102 -8.3783188
-2.0793862 87.638321 -9.8622837
-6.3492117 86.457657 -11.931488
-17.080559 98.375412 -18.82622
-2.0990288 87.328285 -18.729263
-6.311626 86.257088 -20.862106
-18.846546 108.58885 -32.437954
-2.1059897 87.161987 -28.031492
-6.3111138 86.092728 -30.131416
-17.918774 107.33047 34.956421
-16.760965 100.28784 21.831881
-1.5081577 84.511169 7.3928938
-5.7104559 84.509552 5.2824097
-9.8727989 84.479027 3.1645885
-14.412412 86.330223 1.0870955
-1.5467314 84.473518 -1.0537956
-5.7420812 85.143402 -3.1844335
-1.5554699 88.43763 -9.9509716
-5.8031254 86.265007 -11.899764
-16.666302 99.612091 -19.042955
-1.5787928 88.21347 -18.916674
-5.7695565 86.104874 -20.816338
-17.704 105.85691 -31.58882
-1.5820414 87.778542 -28.226126
-5.7706027 85.948914 -30.068127
-17.289473 107.62267 35.016376
-16.303558 101.37287 22.045891
-0.98915899 84.483124 7.38977
-5.1913433 84.535461 5.2819386
-9.3546486 84.54155 3.1647208
-13.733885 85.492371 1.0754635
-1.0282397 84.46981 -1.0536507
-5.2200994 85.186134 -3.1847739
-5.2661638 86.175453 -11.88273
-16.176126 100.46615 -19.18689
-5.2330222 86.005623 -20.784189
-17.227093 107.03817 -31.909172
-5.2420669 85.965439 -30.06209
-16.725815 108.35533 35.220699
-0.47089541 84.510071 7.3917351
-4.6659913 84.447121 5.2745309
-8.8229933 84.475266 3.1601536
-13.076893 84.718819 1.0647032
-0.51045567 84.56295 -1.0547537
-4.6942596 85.16127 -3.1827075
-4.7389855 86.236809 -11.886956
-4.7051868 86.035843 -20.784122
-16.759386 108.36649 -32.273895
-4.7083001 85.883034 -30.022602
0.047651898 84.480988 7.3768358
-4.1501861 84.523682 5.2636323
-8.3060379 84.543518 3.168385
-12.505553 84.451256 1.0525079
0.0095320102 84.468079 -1.0689995
-4.1718655 85.193275 -3.1828871
-4.2109232 86.288193 -11.890254
-4.1814485 86.15081 -20.805305
-8.7411766 88.544113 -23.805532
-4.1808095 85.901428 -30.019499
-8.6465368 88.123093 -33.409557
0.56605631 84.48481 7.3773341
-3.6289599 84.488914 5.2599812
-7.779583 84.510902 3.165314
-11.990325 84.548828 1.0527873
0.52802885 84.499893 -1.0694232
-3.6462605 85.152145 -3.1804545
-8.088151 87.902992 -5.5059814
-3.6830955 86.352425 -11.895768
-8.1064968 87.732002 -14.386539
-3.6572487 86.280823 -20.830893
-8.0955267 87.491699 -23.508789
-3.6624422 86.132286 -30.091757
-8.0145845 87.183769 -33.034168
1.0846093 84.493233 7.3785114
-3.1128857 84.575066 5.2640567
-7.2598953 84.545509 3.1648822
-11.46442 84.569939 1.0521543
1.0467637 84.516197 -1.0696906
-3.1212564 85.106102 -3.1779597
-7.4834266 87.1912 -5.4584184
-3.1651068 86.700218 -11.940779
-7.5088596 87.093803 -14.27406
-3.1348343 86.496574 -20.877945
-7.5095334 86.972221 -23.356388
-3.1426046 86.393143 -30.175585
-7.4287744 86.6399 -32.810207
1.6042982 84.551765 7.3843436
-2.592818 84.557854 5.2618961
-6.7435703 84.620766 3.166091
-10.925296 84.48407 1.0502323
1.5661905 84.554787 -1.0702804
-2.5984015 85.104233 -3.1772346
-6.9140234 86.805283 -5.4315009
-2.6421349 87.016777 -11.981917
-6.9393239 86.700996 -14.202435
-2.614553 86.863098 -20.962145
-6.9413314 86.587326 -23.241146
-2.6192031 86.634323 -30.253643
-6.8706632 86.352585 -32.684822
2.1222618 84.508575 7.3815699
-2.0716381 84.478691 5.2560797
-6.2052298 84.402267 3.1564319
-10.401831 84.509926 1.0497403
2.0845652 84.526726 -1.070067
-2.0764318 85.129234 -3.1776326
-6.3546572 86.48381 -5.4088449
-2.1188297 87.471886 -12.042567
-6.3863153 86.459 -14.156109
-2.0930035 87.356781 -21.077787
-6.3788366 86.208344 -23.128483
-2.0985498 87.103905 -30.412558
-6.3232436 86.15551 -32.594925
2.6422484 84.541641 7.3857355
-1.5534374 84.500214 5.2567267
-5.6911922 84.497604 3.1586318
-9.878809 84.535522 1.0492858
2.6025376 84.492027 -1.0698098
-1.5540456 85.140244 -3.1776278
-5.8143077 86.378952 -5.3999534
-1.5967275 88.293114 -12.154051
-5.8409319 86.278534 -14.120428
-1.5696638 88.081329 -21.249884
-5.8413401 86.121857 -23.09523
-1.575887 87.774483 -30.642736
-5.7761683 85.92025 -32.491901
3.1593783 84.48214 7.3820915
-1.0349742 84.512314 5.2569861
-5.1725311 84.529373 3.1585734
-9.3553782 84.553474 1.0487763
3.1229367 84.528969 -1.0705
-1.0316643 85.15313 -3.1778126
-5.278718 86.323593 -5.3943658
-5.3060217 86.224945 -14.106063
-1.0498056 89.855042 -21.675837
-5.30551 86.037956 -23.063562
-5.2421727 85.844383 -32.450439
3.6792808 84.497627 7.3852782
-0.51606983 84.462143 5.2535691
-4.6555929 84.592651 3.159811
-8.8190327 84.443092 1.0467162
3.6400445 84.473518 -1.0700605
-0.50879914 85.098579 -3.1756003
-4.7465863 86.311455 -5.3916864
-4.7669826 86.077629 -14.076912
-4.7747564 86.019646 -23.050369
-4.7171168 85.907265 -32.462654
4.1989937 84.499893 7.3875899
0.0022022256 84.49585 5.2555676
-4.124032 84.365532 3.1503229
-8.3009701 84.49794 1.0467451
4.160728 84.498962 -1.0706861
0.013369279 85.114456 -3.1761363
-4.2183218 86.368095 -5.3935056
-4.2467847 86.268913 -14.103667
-8.7813005 89.060776 -16.873861
-4.2472343 86.054932 -23.052408
-4.1835022 85.803185 -32.413013
-8.7007551 88.12606 -35.980526
4.7238612 84.588264 7.3977108
0.52095473 84.542 5.2585378
-3.6108983 84.496948 3.1543434
-7.7791591 84.512695 1.0463167
4.6770396 84.434158 -1.0702084
0.53567433 85.120926 -3.1764407
-3.6937366 86.519791 -5.4014616
-8.0985155 87.909386 -7.6863742
-3.7216673 86.393166 -14.119982
-8.1054287 87.714279 -16.609011
-3.7263331 86.245857 -23.096992
-8.0647068 87.336098 -25.814356
-3.6705637 86.146896 -32.533733
-8.0655584 87.15876 -35.564713
5.2414346 84.535706 7.3957872
1.0383337 84.427223 5.2516961
-3.0914257 84.491821 3.1533844
-7.2552919 84.498749 1.0455732
5.2054739 84.573532 -1.0723597
1.0576453 85.090889 -3.1755023
-3.17312 86.823479 -5.4191031
-7.5035987 87.31324 -7.6300807
-3.1996386 86.634529 -14.155954
-7.5055027 87.048309 -16.473879
-3.2048907 86.478218 -23.153517
-7.4760346 86.773018 -25.633883
-3.1449733 86.25193 -32.565498
-7.4836955 86.663216 -35.343109
5.760757 84.512642 7.3967228
1.5584048 84.530647 5.258625
-2.5726295 84.499214 3.1530118
-6.7382388 84.561249 1.0458153
5.7310481 84.639503 -1.0736217
1.5799654 85.095764 -3.1759858
-2.6491108 87.130112 -5.4371252
-6.9229198 86.795914 -7.581018
-2.6764181 86.926025 -14.200633
-6.9324994 86.608711 -16.382326
-2.683099 86.783821 -23.230494
-6.9167614 86.483391 -25.535303
-2.627353 86.654587 -32.710823
-6.917367 86.278061 -35.168064
6.2846851 84.549362 7.403173
2.0757129 84.465195 5.2552471
-2.053906 84.505341 3.1527109
-6.2117076 84.498375 1.0445466
6.2454543 84.53756 -1.0727946
2.1032004 85.13002 -3.1776867
-2.127115 87.667145 -5.4697199
-6.3642473 86.483849 -7.5502081
-2.1521189 87.310837 -14.261073
-6.3811688 86.381889 -16.331709
-2.1609728 87.219269 -23.343065
-6.3638425 86.224297 -25.446793
-2.1041093 87.021011 -32.843655
-6.3655162 86.017174 -35.045143
6.8016424 84.487953 7.4013104
2.5939722 84.452118 5.2553244
-1.5357456 84.537521 3.1535003
-5.6899352 84.487648 1.0439628
6.7656131 84.517159 -1.0730424
2.6250703 85.101257 -3.1771541
-1.601837 88.378098 -5.5133605
-5.8256645 86.405479 -7.5401039
-1.6315001 88.141006 -14.394764
-5.8332067 86.156349 -16.281992
-1.6367416 87.819931 -23.500694
-5.8178244 86.012825 -25.373371
-1.5826873 87.728462 -33.106373
-5.8227568 85.835754 -34.956013
7.3294783 84.554848 7.4109707
3.1170435 84.568375 5.2636504
-1.0163236 84.488884 3.1513941
-5.1764879 84.603798 1.0449859
7.2881722 84.521576 -1.0736459
3.1508195 85.181564 -3.1808145
-5.2879753 86.318741 -7.529561
-5.3079023 86.24662 -16.292591
-1.1134288 89.074112 -23.834038
-5.2849793 85.965912 -25.349487
-1.0572256 88.817009 -33.51408
-5.2942939 85.842743 -34.944969
7.8494248 84.521896 7.4121647
3.6340528 84.504982 5.2609935
-0.49796921 84.507164 3.1519027
-4.6493592 84.490036 1.0432087
7.8124046 84.537529 -1.0744373
3.6722739 85.133919 -3.179817
-4.7552638 86.295685 -7.5248642
-4.7670527 86.069054 -16.253214
-4.7522998 85.904495 -25.322306
-4.7669353 85.863945 -34.941036
8.3734474 84.528191 7.4123774
4.1554446 84.541031 5.2401261
0.02058435 84.576424 3.1696935
-4.1286798 84.472588 1.030991
8.3319416 84.509384 -1.0785309
4.1975136 85.16935 -3.1850681
-4.1960502 86.338364 -7.512146
-4.2425385 86.171349 -16.267311
-4.2311549 86.055016 -25.381094
-4.2403288 85.898376 -34.943802
8.8964472 84.517982 7.4161296
4.6750336 84.530785 5.2411709
0.5390451 84.497665 3.166806
-3.6110046 84.51313 1.031196
8.8576727 84.526779 -1.0794262
4.7192445 85.127907 -3.1845412
-3.6753809 86.578575 -7.530942
-3.7202959 86.348396 -16.296118
-3.7079492 86.193237 -25.414669
-3.7205567 86.093132 -35.013084
9.4196081 84.504364 7.4245768
5.1905394 84.450417 5.2626538
1.0583247 84.558311 3.1540027
-3.0933383 84.560104 1.0431939
9.3795424 84.501366 -1.0798163
5.243453 85.129341 -3.1857388
-3.1505313 86.777351 -7.5464087
-3.2006791 86.647865 -16.348619
-3.1845064 86.363541 -25.458645
-3.1980622 86.271736 -35.077076
9.9463758 84.516647 7.4308782
5.7171583 84.543228 5.270524
1.577171 84.551544 3.1540518
-2.5730491 84.532204 1.0426353
9.9000235 84.460701 -1.0800525
5.7680259 85.129906 -3.1870241
-2.6261346 87.064262 -7.5698152
-2.6761906 86.900795 -16.392937
-2.6640062 86.68988 -25.549545
-2.6741209 86.466728 -35.149029
10.466415 84.46727 7.4273286
6.2364807 84.515923 5.2464786
2.0966012 84.567299 3.1703253
-2.0532763 84.503487 1.0304425
10.426952 84.470245 -1.0536742
6.2928162 85.127403 -3.1883464
-2.1066117 87.692505 -7.6231709
-2.1556726 87.432579 -16.490446
-2.142956 87.148712 -25.646437
-2.1541057 86.90863 -35.322624
11.004066 84.551788 7.440557
6.7559671 84.488846 5.2472725
2.6135998 84.49276 3.1680725
-1.5358317 84.57502 1.0311805
10.960194 84.5214 -1.0551314
6.8209209 85.160721 -3.191102
-1.5803727 88.367683 -7.6808772
-1.6309665 88.082108 -16.610752
-1.6201445 87.808113 -25.837076
-1.6326844 87.557419 -35.581573
11.523451 84.488472 7.4410677
7.2835426 84.553619 5.2539716
3.1334333 84.514069 3.1695325
-1.0154476 84.464622 1.029739
11.480191 84.464325 -1.0826181
7.3550043 85.252586 -3.1961446
-1.11146 89.785851 -16.930443
-1.1069816 88.490807 -35.957447
12.044961 84.4394 7.4431152
7.8026872 84.512413 5.2542877
3.6520443 84.49556 3.1696191
-0.49737665 84.50576 1.030184
12.011457 84.48526 -1.0838108
7.8691673 85.110672 -3.192574
12.579551 84.476089 7.4577436
8.3276825 84.529755 5.2831297
4.1733689 84.531044 3.1565788
0.02114925 84.497017 1.041719
12.541998 84.493324 -1.0848809
8.4071856 85.222321 -3.1986372
13.128584 84.596695 7.4753628
8.8536663 84.548439 5.2875934
4.6926432 84.516075 3.1570354
0.53985989 84.533752 1.0421931
13.086643 84.585663 -1.0870773
8.9304876 85.174423 -3.1988361
13.649152 84.525314 7.4763145
9.3691416 84.464233 5.2858229
5.2068048 84.415443 3.1544108
1.0579302 84.480118 1.0415922
13.605743 84.505867 -1.0871042
9.4549913 85.136475 -3.1995294
14.177049 84.496681 7.4813356
9.9016819 84.528618 5.2935548
5.7341752 84.522141 3.1596527
1.5768824 84.504738 1.0419954
14.131261 84.464149 -1.0876625
9.9846115 85.140045 -3.2019055
14.715345 84.523552 7.491569
10.421467 84.476906 5.2942214
6.2534761 84.496033 3.1600516
2.0954874 84.49839 1.0420561
14.667008 84.478088 -1.0889803
10.518371 85.170578 -3.205421
15.248723 84.514961 7.4989591
10.95832 84.555725 5.3032746
6.7756419 84.503769 3.1618364
2.6170893 84.586639 1.0433228
15.217135 84.564682 -1.0912796
11.044227 85.131088 -3.2064245
15.789134 84.538254 7.5094805
11.479218 84.503662 5.304327
7.2903805 84.418442 3.1602583
3.1333954 84.497261 1.0424379
15.744134 84.514839 -1.0918627
11.563621 85.041458 -3.2056608
16.311089 84.458069 7.5111065
12.009172 84.513725 5.3094845
7.8278031 84.583649 3.1681812
3.6548524 84.546982 1.0433083
16.279472 84.505196 -1.093008
12.091689 85.01445 -3.2073793
16.852802 84.475723 7.5342145
12.531462 84.46505 5.3252745
8.3331985 84.397766 3.155443
4.172379 84.499138 1.0507917
16.826878 84.544525 -1.0751878
12.622142 84.999619 -3.2066317
17.389227 84.460129 7.5421982
13.057342 84.437309 5.3284764
8.8757591 84.581963 3.1643064
4.6914902 84.484756 1.0509511
17.36027 84.512535 -1.0761154
17.930117 84.460075 7.5518761
13.60676 84.551811 5.3408699
9.387639 84.463554 3.1619723
5.2118812 84.488243 1.0513725
17.913456 84.569427 -1.0782189
18.483225 84.509445 7.5662885
14.149664 84.612389 5.35008
9.9271612 84.587044 3.1688156
5.7308927 84.464958 1.0515006
18.465576 84.611641 -1.0801815
19.019909 84.47657 7.5736513
14.664745 84.50193 5.3486853
10.435906 84.442932 3.1657562
6.2547979 84.505951 1.0524689
18.995115 84.544449 -1.0807915
19.567062 84.484222 7.584959
15.198588 84.497223 5.3541894
10.958873 84.416054 3.1672096
6.7711725 84.440697 1.0521538
19.545004 84.562546 -1.0825355
20.115402 84.489929 7.5964098
15.740219 84.528305 5.3621778
11.504916 84.555069 3.1750143
7.3035245 84.56382 1.0542265
20.135426 84.743729 -1.086416
16.283934 84.56179 5.3705397
12.023293 84.481285 3.1749542
7.830893 84.610664 1.0553896
16.80868 84.491394 5.3725181
12.547387 84.445976 3.176461
8.3384686 84.445168 1.0539438
17.344219 84.471588 5.3779244
13.090369 84.529312 3.1825573
8.8629541 84.454308 1.0547167
17.891415 84.501549 5.3867197
13.625133 84.548843 3.1863799
9.3810787 84.399132 1.0547267
18.427 84.47007 5.3918195
14.142609 84.457367 3.1861434
9.9170609 84.495934 1.0566769
18.991295 84.561752 5.4050078
14.694103 84.562012 3.1934321
10.44289 84.494644 1.0574422
19.535883 84.556526 5.4122338
15.21582 84.487633 3.1940889
10.977355 84.553848 1.0590061
16.199272 87.292641 12.223996
20.089186 84.581757 5.4216366
15.746819 84.461746 3.196703
11.502687 84.534309 1.0596255
16.308369 84.589676 3.2052717
12.031936 84.537819 1.0605749
16.825947 84.4823 3.2128062
12.563543 84.55069 1.0538254
17.90556 87.182587 12.243923
17.370825 84.507942 3.2177746
13.075821 84.43145 1.0533195
17.908699 84.492569 3.2213125
13.620399 84.515747 1.0553938
18.459095 84.528969 3.226958
14.164796 84.586281 1.05734
