# .PCD v0.7 - Point Cloud Data file format
VERSION 0.7
FIELDS x y z
SIZE 4 4 4
TYPE F F F
COUNT 1 1 1
WIDTH 1482
HEIGHT 1
VIEWPOINT 0 0 0 1 0 0 0
POINTS 1482
DATA ascii
-1.8359622 -42.278713 7.9947224
-1.8171831 -42.135399 3.6873214
-1.8097798 -42.118866 -0.51756364
-1.8235409 -42.018101 -4.7279181
-1.832691 -41.862343 -9.0030746
-1.8070799 -41.741848 -13.435072
-2.0905662 -42.233158 17.168594
-2.0673828 -42.084229 12.406687
-2.080085 -41.95882 7.9364958
-2.0642602 -41.891552 3.6670215
-2.0561333 -41.861645 -0.51454824
-2.0673416 -41.723888 -4.6961517
-2.0769238 -41.598038 -8.9488039
-2.0565045 -41.595158 -13.391668
-2.3333454 -41.926292 17.049347
-2.3134544 -41.851692 12.342087
-2.330977 -41.828285 7.9143615
-2.3127716 -41.724892 3.6536059
-2.2993498 -41.602108 -0.51152188
-2.3138793 -41.540997 -4.6770768
-2.3265331 -41.484776 -8.9273405
-2.299952 -41.370625 -13.323671
-2.578733 -41.719891 16.971529
-2.5624557 -41.710506 12.304856
-2.5756094 -41.61964 7.8777261
-2.5562549 -41.507057 3.6358364
-2.5465891 -41.457325 -0.50992417
-2.5584157 -41.359398 -4.6583104
-0.58063906 -45.018135 -6.196528
-2.5684443 -41.26741 -8.8837891
-0.55711228 -44.508179 -10.730313
-2.5439675 -41.197319 -13.272635
-0.54944336 -43.99482 -15.365497
-2.8224213 -41.523026 16.898172
-2.8063345 -41.516407 12.252444
-2.8203516 -41.447525 7.8482752
-2.8015049 -41.352058 3.6236968
-0.82679909 -44.026398 2.7380579
-2.7900529 -41.280144 -0.52283949
-0.79658115 -43.936733 -1.6336221
-2.8030868 -41.209759 -4.6469283
-0.83073151 -43.641636 -5.986814
-2.8130352 -41.125534 -8.8426371
-0.81007975 -43.425377 -10.467091
-2.7923422 -41.116734 -13.237444
-0.80487686 -43.211933 -15.079135
-3.0692873 -41.398888 16.855
-1.0830494 -43.95602 16.592817
-3.0493391 -41.340015 12.205681
-1.0931122 -43.678677 11.680025
-3.0632355 -41.276085 7.8192244
-1.0751432 -43.484833 7.0963783
-3.0437927 -41.179974 3.6101856
-1.0784482 -43.279003 2.6919372
-3.0342476 -41.139629 -0.52128577
-1.0488037 -43.215946 -1.6070315
-3.0499148 -41.111198 -4.6378369
-1.0818225 -42.97337 -5.8959398
-3.056632 -40.990925 -8.8175611
-1.0635828 -42.89785 -10.341318
-3.0334556 -40.948685 -13.189086
-1.0608631 -42.837002 -14.95029
-3.3191552 -41.3283 16.834234
-1.3316133 -43.262207 16.333691
-3.2942321 -41.21159 12.173501
-1.3423125 -43.068352 11.518805
-3.3051989 -41.116619 7.7927113
-1.3257675 -42.953396 7.0108476
-3.2932653 -41.121296 3.606745
-3.2778754 -41.010841 -0.50508916
-1.299457 -42.732014 -1.604599
-3.2906299 -40.94883 -4.6181087
-1.3320413 -42.53669 -5.8573523
-3.2993774 -40.863544 -8.8084316
-1.3137614 -42.469677 -10.242953
-3.2770576 -40.834625 -13.172989
-1.3090345 -42.355587 -14.798895
-3.5630023 -41.195328 16.788662
-1.5794772 -42.777672 16.15411
-3.5418108 -41.129871 12.155553
-1.590879 -42.639271 11.406441
-3.5553317 -41.071396 7.7881279
-1.5736082 -42.520432 6.9416242
-3.5351794 -40.98045 3.5962265
-1.5800103 -42.470669 2.6426663
-3.5274093 -40.966228 -0.50479674
-1.5495324 -42.392212 -1.5921665
-3.5337915 -40.835026 -4.6076331
-1.5823773 -42.243675 -5.8182316
-3.5433798 -40.765789 -8.7918797
-1.5638449 -42.17812 -10.174758
-3.5247548 -40.781372 -13.162539
-1.5569599 -42.024624 -14.686318
-3.811744 -41.12994 16.771227
-1.8273968 -42.429802 16.026674
-3.7857993 -41.017292 12.128919
-1.8409612 -42.363655 11.33552
-3.7996516 -40.966618 7.7725344
-1.8201559 -42.178051 6.8874226
-3.7866812 -40.959244 3.5963366
-1.8270682 -42.148556 2.6232715
-3.7737057 -40.889618 -0.50412858
-1.795845 -42.059345 -1.5800489
-3.7802446 -40.769001 -4.6027141
-1.8292738 -41.951622 -5.7794442
-3.7898972 -40.705147 -8.7836514
-1.8101233 -41.878811 -10.105043
-3.7658794 -40.661369 -13.131019
-1.806057 -41.812115 -14.615649
-4.0614429 -41.079498 16.760506
-2.0765369 -42.190826 15.940922
-4.0402932 -41.022652 12.137606
-2.0840712 -42.012997 11.244902
-4.042882 -40.861065 7.7570686
-2.0712123 -42.009712 6.8618813
-4.0338922 -40.894287 3.5927391
-2.0730069 -41.881058 2.6073656
-4.0163155 -40.782291 -0.50309968
-2.04544 -41.87468 -1.5735533
-4.0324631 -40.766624 -4.6051521
-2.0762846 -41.731262 -5.7507334
-4.0381141 -40.666275 -8.7804451
-2.0583904 -41.691444 -10.062693
-4.0117202 -40.601242 -13.119303
-2.051183 -41.569309 -14.534902
-4.3035316 -40.959629 16.722059
-2.3213878 -41.924652 15.845437
-4.2832832 -40.914513 12.113158
-2.3326733 -41.835384 11.200983
-4.2960272 -40.859283 7.7615886
-2.3144 -41.734013 6.8190393
-4.2819257 -40.841927 3.5903795
-2.3189423 -41.66991 2.5963092
-4.264195 -40.73513 -0.50283122
-2.2899959 -41.636894 -1.5651165
-4.2711611 -40.63303 -4.5929346
-2.3222699 -41.53825 -5.7259917
-4.2827687 -40.595295 -8.770628
-2.3015597 -41.450985 -10.007874
-4.2589746 -40.558811 -13.113791
-2.2938042 -41.332409 -14.456717
-4.5576882 -40.958633 16.732756
-2.5671721 -41.724052 15.775276
-4.539258 -40.932621 12.126537
-2.5767798 -41.61763 11.146706
-4.5430322 -40.799622 7.7554045
-2.5603006 -41.554585 6.792161
-4.5271673 -40.767338 3.5861971
-2.563237 -41.471359 2.5848691
-4.5158653 -40.724472 -0.50303221
-2.5315444 -41.395042 -1.5565799
-4.5252533 -40.649647 -4.5978651
-2.564271 -41.316582 -5.6974964
-4.5355654 -40.602165 -8.7779598
-2.5436671 -41.238487 -9.9601488
-0.55210012 -44.490425 -11.898136
-4.5102649 -40.554443 -13.121078
-2.5406728 -41.208885 -14.418695
-0.55505943 -43.934475 -16.576128
-4.814929 -40.981033 16.73424
-2.8023038 -41.54554 15.719062
-4.7881222 -40.885132 12.120945
-2.809324 -41.479576 11.123956
-4.7927818 -40.766663 7.7493143
-2.7974379 -41.431034 6.7692938
-0.81939489 -44.438908 6.1107583
-4.7755742 -40.724701 3.5849566
-2.8039908 -41.344322 2.5803525
-0.80978227 -44.047764 1.6451945
-4.7652493 -40.692471 -0.51773685
-2.7822399 -41.330414 -1.5399408
-0.82344949 -43.836624 -2.7244372
-4.7742691 -40.618378 -4.6011415
-2.8082831 -41.161499 -5.6586871
-0.80194223 -43.595856 -7.117795
-4.7821894 -40.55304 -8.7594919
-2.7916062 -41.14769 -9.9391575
-0.80535448 -43.422726 -11.61677
-4.7572641 -40.51107 -13.101894
-2.7867451 -41.093227 -14.370238
-0.81027758 -43.165833 -16.287695
-5.0626879 -40.92157 16.72233
-3.0478745 -41.401287 15.671264
-5.0412059 -40.873688 12.126493
-3.0526791 -41.311253 11.083631
-1.0654503 -43.670921 10.517028
-5.058363 -40.86195 7.7731805
-3.0419366 -41.281918 6.7478533
-1.0683155 -43.467251 5.9779358
-5.0299277 -40.731602 3.5882134
-3.0497274 -41.219624 2.5736897
-1.0622605 -43.316959 1.6181117
-5.0199533 -40.703888 -0.51826429
-3.0234535 -41.144722 -1.5336843
-1.0759525 -43.170376 -2.6833897
-5.0250607 -40.601662 -4.602654
-3.0538654 -41.050369 -5.6458797
-1.0554217 -43.019257 -7.0245795
-5.03019 -40.517021 -8.758214
-3.0338809 -40.99263 -9.9060125
-1.0587627 -42.889767 -11.475712
-5.0058699 -40.482117 -13.102218
-3.0247636 -40.885132 -14.303689
-1.0656042 -42.778099 -16.143557
-5.3230376 -40.961758 16.751783
-3.2928033 -41.268475 15.628345
-1.3251066 -43.245789 15.096818
-5.2931943 -40.851913 12.129441
-3.2977631 -41.187576 11.055668
-5.306705 -40.812546 7.7698307
-3.287914 -41.171478 6.7329721
-1.3170667 -42.87587 5.8976054
-5.2853494 -40.743073 3.5920134
-3.2907982 -41.053101 2.5645046
-1.3138827 -42.848282 1.6008754
-5.2648044 -40.635201 -0.50304151
-3.2668059 -41.011772 -1.5441678
-1.3269851 -42.717548 -2.6635172
-5.2780099 -40.600189 -4.6024818
-3.2971425 -40.924778 -5.6508799
-1.3064253 -42.590172 -6.9556928
-5.2885146 -40.560638 -8.7885418
-3.278199 -40.884052 -9.8874464
-1.3074355 -42.412907 -11.347057
-5.2628174 -40.517212 -13.138154
-3.2715847 -40.816097 -14.299911
-1.3140192 -42.318363 -15.972803
-5.5832725 -40.994392 16.778824
-3.540664 -41.185879 15.605
-1.5743606 -42.799889 14.94425
-5.5576982 -40.92131 12.159942
-3.547698 -41.135017 11.047196
-1.5640203 -42.638744 10.272304
-5.5674262 -40.85553 7.7843709
-3.5290678 -41.017929 6.7112765
-1.5702416 -42.598885 5.8607211
-5.539598 -40.741894 3.5948381
-3.536875 -40.965435 2.5603356
-1.5610906 -42.413395 1.5849553
-5.5309772 -40.726856 -0.50458682
-3.5114832 -40.910503 -1.541137
-1.5745984 -42.319633 -2.6392591
-5.5410771 -40.670143 -4.6141791
-3.5481522 -40.903332 -5.6508183
-1.5571717 -42.294716 -6.9088697
-5.5498576 -40.619396 -8.8084869
-3.5221748 -40.784214 -9.8683424
-1.5583879 -42.153622 -11.280035
-5.5171862 -40.527191 -13.15212
-3.5179205 -40.748386 -14.283484
-1.5630732 -42.024975 -15.865387
-5.8382859 -40.984501 16.789124
-3.7888806 -41.115314 15.586779
-1.8208277 -42.413944 14.813114
-5.8207822 -40.971634 12.185281
-3.7920246 -41.025845 11.023918
-1.814966 -42.37962 10.212367
-5.8256731 -40.87442 7.7946353
-3.7799637 -40.987701 6.7099991
-1.8165727 -42.239155 5.8126535
-5.8049278 -40.815735 3.604429
-3.7885659 -40.947254 2.5606043
-1.8104632 -42.150585 1.5755198
-5.7838068 -40.713531 -0.50485194
-3.7581306 -40.841354 -1.5393716
-1.8215427 -42.016342 -2.6209924
-5.7986026 -40.692097 -4.6206198
-3.7907891 -40.791744 -5.6385098
-1.8037546 -41.984013 -6.8597946
-5.8007078 -40.596603 -8.8110952
-3.7663124 -40.696529 -9.8525314
-1.8040683 -41.843128 -11.199699
-5.7787995 -40.584198 -13.181879
-3.7593036 -40.633308 -14.250962
-1.8102577 -41.768929 -15.772618
-6.1139636 -41.111374 16.856146
-4.0335073 -41.014206 15.557538
-2.0686519 -42.149536 14.724925
-6.0869064 -41.035168 12.215053
-4.0396585 -40.960991 11.012945
-2.0597787 -42.057518 10.137605
-6.0970912 -40.977203 7.8212223
-4.0217118 -40.865402 6.693892
-2.0633724 -41.976143 5.7780933
-6.0707192 -40.883461 3.613631
-4.0305524 -40.830135 2.5547788
-2.0558419 -41.869465 1.565454
-6.0583057 -40.844467 -0.50692701
-4.0066018 -40.796638 -1.538584
-2.0689042 -41.794136 -2.6078737
-6.0545101 -40.69836 -4.6254625
-4.0325089 -40.681931 -5.6266451
-2.0477724 -41.696087 -6.8146758
-6.0640273 -40.65633 -8.8319683
-4.0103436 -40.615856 -9.8387737
-2.0511711 -41.636223 -11.147479
-6.0384822 -40.620464 -13.205445
-4.0064645 -40.588303 -14.24353
-2.0556252 -41.537014 -15.689513
-6.3846617 -41.192818 16.905283
-4.2843833 -40.981915 15.554969
-2.3145878 -41.907005 14.644881
-6.359283 -41.130951 12.254951
-4.2869849 -40.897938 11.002857
-2.3053777 -41.818832 10.083291
-6.3699875 -41.078178 7.8478074
-4.2763925 -40.878334 6.700182
-2.3089473 -41.746677 5.7483482
-6.3433223 -40.986691 3.6261277
-4.2796497 -40.791706 2.5539691
-2.3027751 -41.676254 1.5587292
-6.3216271 -40.889435 -0.50795692
-4.2533002 -40.737282 -1.5373008
-2.3123693 -41.548141 -2.5933607
-6.3235741 -40.785934 -4.6397376
-4.2842903 -40.677708 -5.629591
-2.2970467 -41.564575 -6.7953577
-6.3328176 -40.743439 -8.8591671
-4.2589698 -40.585598 -9.8375883
-2.2933588 -41.38377 -11.083447
-6.3102551 -40.728798 -13.253001
-4.2505059 -40.515968 -14.227033
-2.2994053 -41.325058 -15.614488
-6.6597366 -41.292 16.962439
-4.5360355 -40.95731 15.555902
-2.5594368 -41.692627 14.575179
-6.6305423 -41.209267 12.290174
-4.5386248 -40.877842 11.004737
-2.551923 -41.640606 10.043903
-6.6380424 -41.138245 7.8669162
-4.5202942 -40.789581 6.6900544
-2.5534909 -41.543625 5.7224383
-6.6163807 -41.081654 3.6380522
-4.5280871 -40.748699 2.552968
-2.5484288 -41.498188 1.5526247
-6.5900583 -40.959621 -0.50932151
-4.503623 -40.714424 -1.537452
-2.5566154 -41.360943 -2.5826066
-6.6000829 -40.909813 -4.6583495
-4.5347395 -40.659042 -5.630753
-2.538897 -41.335728 -6.7603631
-6.6072249 -40.855492 -8.8921785
-4.511642 -40.592197 -9.8457136
-2.5392587 -41.239258 -11.048709
-6.573966 -40.775661 -13.281126
-4.5012631 -40.509239 -14.2341
-2.545224 -41.185501 -15.567364
-0.5528447 -43.937889 -17.838625
-6.9469209 -41.452919 17.045732
-4.7904692 -40.956142 15.566329
-2.8064668 -41.5467 14.529911
-6.9103241 -41.32959 12.338473
-4.7954941 -40.901531 11.018827
-2.7973092 -41.47488 10.007881
-6.9114332 -41.222561 7.8910012
-4.776372 -40.811329 6.6983027
-2.7998691 -41.401756 5.7051563
-0.8095963 -44.424938 4.9976406
-6.8985734 -41.221031 3.6540747
-4.7782431 -40.721947 2.553081
-2.7952929 -41.367569 1.5483503
-0.81947118 -43.986736 0.54699337
-6.8734541 -41.110977 -0.51171845
-4.7496982 -40.654694 -1.5362682
-2.8058832 -41.278706 -2.5784984
-0.81201506 -43.746689 -3.8035367
-6.8835425 -41.062813 -4.6804924
-4.7793927 -40.590187 -5.6251726
-2.7827001 -41.174637 -6.7366829
-6.8847013 -40.974396 -8.9270849
-4.7638597 -40.591297 -9.8523998
-2.7863562 -41.135876 -11.025384
-0.79818362 -43.365105 -12.767484
-6.8486695 -40.881592 -13.329065
-4.7481151 -40.467018 -14.229234
-2.7896457 -41.047928 -15.521543
-0.80876124 -43.203346 -17.542088
-7.2312474 -41.582661 17.117008
-5.0392518 -40.906292 15.558841
-3.0541208 -41.430759 14.495645
-1.0828483 -43.773876 14.079608
-7.2079415 -41.540878 12.41452
-5.0392032 -40.813274 11.003174
-3.0433407 -41.3428 9.9803286
-1.0609479 -43.613888 9.3682833
-7.2001557 -41.385811 7.9305592
-5.0242333 -40.761276 6.6950216
-3.0439465 -41.249546 5.6866488
-1.0565413 -43.367245 4.879292
-7.1842489 -41.367241 3.6708744
-5.0294571 -40.703541 2.5538137
-3.039526 -41.220242 1.543505
-1.0710787 -43.243042 0.53781682
-7.161613 -41.275715 -0.51430625
-5.0039921 -40.664848 -1.5377833
-3.0481842 -41.113312 -2.5692868
-1.0643965 -43.091961 -3.7471094
-7.1686707 -41.211235 -4.7023358
-5.0335393 -40.601871 -5.6309662
-3.0287223 -41.067722 -6.7221045
-1.0536187 -43.191452 -8.1589975
-7.1762471 -41.162312 -8.9774504
-5.0041332 -40.490902 -9.8352985
-3.0285389 -40.980381 -10.988481
-1.0508745 -42.814342 -12.60699
-7.1307874 -41.019432 -13.388021
-5.0047026 -40.504944 -14.253099
-3.0359173 -40.955273 -15.493259
-1.0611075 -42.685478 -17.334131
-7.5441775 -41.858875 17.249437
-5.3007493 -40.956463 15.590001
-3.293921 -41.231518 14.432736
-1.3327498 -43.161762 13.885093
-7.5040684 -41.725914 12.483344
-5.3020577 -40.878178 11.029235
-3.285917 -41.184952 9.9469032
-1.310364 -43.010017 9.2401257
-7.5170994 -41.691036 7.997736
-5.2860279 -40.82066 6.7099767
-3.2873347 -41.109322 5.669991
-1.3093442 -42.924931 4.8303404
-7.4782834 -41.546513 3.6907852
-5.2854137 -40.72044 2.5568607
-3.2837853 -41.093109 1.5394701
-1.322363 -42.781734 0.53217036
-7.4499817 -41.426952 -0.51675057
-5.2600822 -40.684963 -1.5397353
-3.2927251 -40.998348 -2.5633168
-1.3149697 -42.636688 -3.7081523
-7.453558 -41.344833 -4.7227092
-5.2914972 -40.638756 -5.6404786
-3.2698634 -40.913422 -6.700006
-1.3039207 -42.703033 -8.0680923
-7.4671726 -41.330559 -9.0239677
-5.2645178 -40.552143 -9.8578348
-3.271878 -40.860489 -10.96151
-1.301127 -42.401936 -12.48767
-7.4182181 -41.174019 -13.453078
-5.2607193 -40.531853 -14.273658
-3.2704239 -40.727482 -15.414389
-1.3118944 -42.319866 -17.188606
-7.8535004 -42.093849 17.365799
-5.5618553 -40.996151 15.617805
-3.5459371 -41.199905 14.429014
-1.5804043 -42.689335 13.735975
-7.8076706 -41.935402 12.560116
-5.5635023 -40.923729 11.050528
-3.5317247 -41.084476 9.9276838
-1.5582464 -42.564308 9.1462517
-7.8236575 -41.916794 8.0501013
-5.5459366 -40.857716 6.7215347
-3.5378757 -41.069336 5.6673641
-1.5580971 -42.517532 4.785481
-7.781209 -41.758198 3.7137616
-5.5467706 -40.772503 2.5622187
-3.5266318 -40.964916 1.5354493
-1.5715851 -42.415009 0.5277186
-7.7583761 -41.672352 -0.52039564
-5.5122838 -40.671558 -1.5404792
-3.5385079 -40.911274 -2.5591819
-1.5654072 -42.326271 -3.681921
-7.7706375 -41.63876 -4.7616401
-5.5474195 -40.654377 -5.6472645
-3.5130951 -40.802608 -6.6852636
-1.5487785 -42.226929 -7.9797854
-7.7684336 -41.539566 -9.0798388
-5.5200372 -40.569008 -9.8699837
-3.5184138 -40.791893 -10.948694
-1.5511389 -42.117886 -12.406585
-7.721468 -41.39983 -13.542085
-5.5063095 -40.476681 -14.265858
-3.5237055 -40.746471 -15.429466
-1.5592124 -41.979111 -17.05377
-8.2155533 -42.5835 17.603487
-5.8187542 -40.999687 15.633167
-3.7977021 -41.166893 14.447547
-1.8295286 -42.382694 13.640662
-8.1555996 -42.358112 12.70147
-5.8203979 -40.930286 11.061734
-3.7804785 -41.026546 9.9344349
-1.8085608 -42.30072 9.0955563
-8.1686144 -42.323463 8.144845
-5.7958074 -40.817818 6.7250562
-3.7832115 -40.97543 5.672761
-1.8061286 -42.207516 4.7517457
-8.109252 -42.08313 3.747014
-5.7976971 -40.743713 2.5625968
-3.7755275 -40.91655 1.5344759
-1.8172897 -42.068436 0.52353549
-8.0766573 -41.949806 -0.52446949
-5.7708263 -40.701111 -1.5429107
-3.7843456 -40.833561 -2.5557253
-1.8129065 -42.033443 -3.6573472
-8.0771618 -41.85553 -4.7920065
-5.7993174 -40.637451 -5.6497502
-3.765573 -40.80394 -6.6891418
-1.7941208 -41.896038 -7.9191871
-8.0830107 -41.800575 -9.1475601
-5.7822285 -40.628304 -9.8928537
-3.7631695 -40.710331 -10.932794
-1.7991242 -41.865177 -12.335166
-8.0454531 -41.715187 -13.66113
-5.7653422 -40.51786 -14.292571
-3.7604103 -40.581142 -15.375309
-1.8063396 -41.72797 -16.955929
-6.0908523 -41.102482 15.686318
-4.0370841 -41.009315 14.400668
-2.0777428 -42.131245 13.563583
-8.5231552 -42.849247 12.864182
-6.0830255 -40.971886 11.082855
-4.0284657 -40.96524 9.9253893
-2.0572627 -42.067631 9.0479813
-8.5057173 -42.661583 8.2198029
-6.073597 -40.96664 6.755589
-4.0295291 -40.900364 5.6656852
-2.0535502 -41.96014 4.7252254
-8.4617004 -42.506706 3.7892804
-6.0772471 -40.907017 2.5751648
-4.0192432 -40.818798 1.5317061
-2.0654905 -41.856022 0.52103996
-8.4302788 -42.383984 -0.53053445
-6.0335693 -40.753513 -1.5462713
-4.0283079 -40.743656 -2.5515971
-2.058311 -41.768391 -3.6353152
-8.4237108 -42.25605 -4.843688
-6.069654 -40.74276 -5.6694622
-4.0072589 -40.692612 -6.6747961
-2.0412652 -41.682251 -7.8809962
-8.419179 -42.149887 -9.2351332
-6.0391865 -40.644386 -9.9056072
-4.0087814 -40.644783 -10.921591
-2.0440545 -41.61087 -12.2637
-8.3734446 -42.027328 -13.77992
-6.0313363 -40.599449 -14.334136
-4.0040126 -40.503399 -15.354875
-2.0529416 -41.525906 -16.878622
-6.3626747 -41.192112 15.734416
-4.286325 -40.96172 14.370797
-2.3220434 -41.862274 13.481325
-6.3555489 -41.071037 11.120014
-4.2724657 -40.870087 9.8932085
-2.3001335 -41.777893 8.9848433
-6.3367219 -41.005424 6.7638803
-4.2774243 -40.846367 5.6465054
-2.2999451 -41.746548 4.702673
-8.890687 -43.273289 3.8624082
-6.3424039 -40.961113 2.5809715
-4.2656145 -40.755024 1.5302662
-2.3107202 -41.634438 0.51844835
-6.3118744 -40.899487 -1.5532502
-4.2797942 -40.733047 -2.5525293
-2.3060372 -41.601238 -3.6219304
-8.8155394 -42.848602 -4.9177189
-6.3363423 -40.813019 -5.6845417
-4.2546988 -40.646523 -6.6713924
-2.2887654 -41.519829 -7.8527942
-8.7962894 -42.672997 -9.3613987
-6.3118987 -40.7579 -9.942523
-4.2547278 -40.587265 -10.912945
-2.2904799 -41.437325 -12.216464
-8.7176752 -42.395893 -13.91804
-6.3008122 -40.693916 -14.380868
-4.2557335 -40.509212 -15.366688
-2.2956142 -41.295174 -16.790249
-6.6240363 -41.2066 15.755179
-4.5423312 -40.977501 14.38584
-2.5707142 -41.715012 13.438727
-6.6300449 -41.171661 11.158064
-4.5243387 -40.853745 9.8957863
-2.5462391 -41.596424 8.949007
-6.6060004 -41.076405 6.7821465
-4.52706 -40.811123 5.6453662
-2.5448911 -41.549385 4.6821342
-6.619338 -41.081081 2.5910411
-4.5209322 -40.77615 1.5320723
-2.5572381 -41.475075 0.51664954
-6.585331 -41.00082 -1.5586038
-4.526639 -40.678986 -2.5508342
-2.5492754 -41.391876 -3.6049967
-6.6085134 -40.908722 -5.7034121
-4.5012751 -40.594883 -6.6673245
-2.5291963 -41.271858 -7.8086824
-6.5804977 -40.834019 -9.9707546
-4.4979448 -40.508678 -10.899032
-2.5324159 -41.222656 -12.157529
-9.1610661 -43.206665 -14.202394
-6.566175 -40.752472 -14.415528
-4.5079041 -40.515541 -15.379292
-2.5422795 -41.172218 -16.746283
-6.9325671 -41.439026 15.860288
-4.788321 -40.90308 14.39188
-2.8060796 -41.543251 13.380085
-6.9351764 -41.356339 11.209921
-4.7780867 -40.852219 9.9176369
-2.7901783 -41.44384 8.9231863
-6.9114456 -41.291145 6.8362308
-4.7745662 -40.758488 5.6572499
-2.810647 -41.334148 4.6565838
-6.8990417 -41.16803 2.5967896
-4.7654214 -40.699608 1.5302662
-2.8052173 -41.310322 0.51530355
-6.8737202 -41.084049 -1.5503277
-4.7600079 -40.657066 -2.5511267
-2.7876992 -41.236774 -3.606874
-6.8783956 -41.049274 -5.7221794
-4.7508178 -40.598644 -6.6723518
-2.7798769 -41.200981 -7.7971592
-6.8718972 -40.941051 -10.012573
-4.7341075 -40.525604 -10.910677
-2.7825425 -41.111485 -12.125502
-6.8364835 -40.878464 -14.468988
-4.7617998 -40.451859 -15.351559
-2.7725024 -41.08884 -16.728212
-7.2180099 -41.576042 15.929379
-5.0395327 -40.875561 14.392806
-3.0547996 -41.442059 13.353277
-7.2135592 -41.455273 11.248523
-5.0326128 -40.854202 9.9254284
-3.0366757 -41.320549 8.9004831
-7.1919146 -41.404789 6.8622222
-5.0244222 -40.727257 5.6570873
-3.0572374 -41.222023 4.6459775
-7.1843224 -41.313583 2.6087022
-5.0196214 -40.706593 1.5316581
-3.0508423 -41.18705 0.51398975
-7.1554017 -41.212296 -1.5567946
-5.0112758 -40.642426 -2.5520892
-3.0288565 -41.058796 -3.5928645
-7.1576333 -41.16441 -5.7442431
-5.0042782 -40.604763 -6.678278
-3.0213585 -41.030087 -7.7681804
-7.1616483 -41.120144 -10.06693
-4.9833989 -40.501644 -10.912252
-3.0282979 -41.006317 -12.099735
-7.1158624 -41.001007 -14.527545
-5.0144877 -40.45874 -15.365558
-3.0121861 -40.902924 -16.659733
-7.5247769 -41.818829 16.032291
-5.2959619 -40.888 14.386211
-3.2944553 -41.240131 13.294477
-7.5175381 -41.6861 11.32346
-5.2884345 -40.863037 9.919939
-3.2800367 -41.174091 8.8841372
-7.4866738 -41.586735 6.9118891
-5.2876625 -40.799332 5.6562433
-3.3021441 -41.103283 4.6211295
-7.4809861 -41.508995 2.6226251
-5.2736273 -40.708439 1.5329162
-3.2932539 -41.039818 0.51239491
-7.456202 -41.434689 -1.5668944
-5.2648187 -40.643791 -2.5541556
-3.27262 -40.937962 -3.5839806
-7.4450831 -41.313961 -5.7713785
-5.254663 -40.58358 -6.6799712
-3.2664745 -40.928341 -7.7525659
-7.4465952 -41.25703 -10.111438
-5.2425413 -40.553238 -10.934615
-3.2686205 -40.846611 -12.058304
-7.4078341 -41.181873 -14.60746
-5.2659883 -40.452904 -15.375323
-3.2526679 -40.752899 -16.606441
-7.8372235 -42.072453 16.147655
-5.5621462 -40.968159 14.426151
-3.5392954 -41.124577 13.263978
-7.8282948 -41.934433 11.403749
-5.5447831 -40.87196 9.9301777
-3.5235929 -41.048088 8.8614483
-7.8009167 -41.857727 6.9647541
-5.5443487 -40.813568 5.6628261
-3.5487416 -41.018143 4.6139183
-7.7960215 -41.786514 2.643132
-5.5323491 -40.741871 1.5354246
-3.5394614 -40.954655 0.5115931
-7.7637596 -41.675117 -1.5777582
-5.5256882 -40.696022 -2.5595207
-3.5190685 -40.862751 -3.5792191
-7.7600017 -41.597496 -5.8175292
-5.5175896 -40.65379 -6.6969748
-3.511394 -40.835991 -7.7390084
-7.7514367 -41.487984 -10.179505
-5.4959574 -40.554874 -10.943943
-3.5142651 -40.768658 -12.041429
-7.7034512 -41.36692 -14.689588
-5.5238843 -40.49152 -15.402593
-3.4991574 -40.691414 -16.589825
-5.821291 -40.988693 14.445688
-3.790678 -41.092468 13.260874
-8.1747274 -42.34811 11.529669
-5.8057036 -40.909348 9.9477291
-3.7732363 -41.002247 8.8563843
-8.1231556 -42.149227 7.0214181
-5.8066645 -40.863171 5.6745453
-3.7949402 -40.937206 4.607347
-8.116745 -42.072079 2.6642947
-5.7870851 -40.741352 1.5367142
-3.787436 -40.897045 0.51115423
-8.0783482 -41.93306 -1.5893703
-5.78337 -40.718227 -2.5631008
-3.7696528 -40.839531 -3.5791438
-8.061141 -41.7878 -5.8509507
-5.7755475 -40.679874 -6.7069826
-3.758122 -40.772758 -7.7312498
-8.0663719 -41.752876 -10.256452
-5.747282 -40.538635 -10.948873
-3.7610152 -40.710213 -12.030757
-8.0179453 -41.63467 -14.801859
-5.7795429 -40.508102 -15.422101
-3.7414062 -40.58934 -16.557259
-8.5716162 -43.072002 16.570417
-6.090085 -41.069584 14.487094
-4.034687 -40.986565 13.234439
-8.5439205 -42.846294 11.679358
-6.0736189 -40.987736 9.9756651
-4.0234671 -40.965252 8.8535595
-8.4878941 -42.632347 7.1104407
-6.0628815 -40.86451 5.6797905
-4.0376363 -40.828014 4.5977597
-8.4754572 -42.526833 2.6963358
-6.0458646 -40.76511 1.5389807
-4.0273652 -40.76231 0.50976944
-8.4331999 -42.373669 -1.6080015
-6.0388589 -40.720818 -2.5655479
-4.0143342 -40.756393 -3.5739493
-8.4092789 -42.198654 -5.9155912
-6.0316401 -40.688152 -6.714323
-4.0006299 -40.671677 -7.7165918
-6.016284 -40.640205 -10.986068
-4.0028467 -40.606319 -12.007086
-8.3443594 -41.942085 -14.92907
-6.0441279 -40.580273 -15.463407
-3.9887078 -40.548538 -16.550285
-6.3592677 -41.143364 14.526609
-4.2848511 -40.9491 13.23058
-6.3415155 -41.056614 10.001711
-4.2699571 -40.89389 8.8436317
-9.1754169 -44.653095 7.4567208
-6.3431854 -41.018448 5.7064886
-4.2864857 -40.787331 4.5960541
-8.9001865 -43.271114 2.7469363
-6.3273067 -40.930531 1.5466624
-4.2810264 -40.771343 0.51020133
-6.3186331 -40.877266 -2.5777988
-4.2589498 -40.679543 -3.5694346
-8.8024397 -42.799713 -6.0073085
-6.3086214 -40.827938 -6.7436519
-4.2495961 -40.64143 -7.7156553
-8.7664709 -42.565189 -10.481632
-6.2892985 -40.756519 -11.027734
-4.2526612 -40.587994 -12.009156
-8.6984873 -42.362167 -15.09731
-6.3090181 -40.645554 -15.50274
-4.2331166 -40.48201 -16.533422
-6.6338649 -41.241985 14.575529
-4.5358758 -40.920643 13.230131
-6.6157565 -41.156532 10.035752
-4.5180869 -40.842461 8.8383389
-6.6137948 -41.097088 5.7229676
-4.5339131 -40.735477 4.5932589
-6.5960469 -41.001045 1.550827
-4.5265574 -40.703369 0.50968868
-6.5905252 -40.96946 -2.5861146
-4.5072498 -40.641598 -3.5684645
-6.5694885 -40.853569 -6.7544165
-4.4984279 -40.610439 -7.7148671
-9.2896957 -43.745365 -10.786082
-6.5605001 -40.849457 -11.063564
-4.4981127 -40.52953 -11.9998
-6.5731082 -40.697784 -15.537752
-4.485992 -40.496449 -16.550249
-6.9193854 -41.395466 14.644501
-4.7838626 -40.866306 13.221805
-6.8941779 -41.270889 10.073763
-4.7671394 -40.801407 8.835619
-6.893384 -41.220451 5.7459283
-4.7928143 -40.783791 4.6019363
-6.8836918 -41.176285 1.5590236
-4.7842231 -40.74295 0.51054233
-6.8695469 -41.094326 -2.5966079
-4.7583051 -40.628311 -3.5697942
-6.8541565 -41.016659 -6.7882061
-4.744072 -40.552551 -7.7092552
-6.8284593 -40.912891 -11.091885
-4.7516217 -40.543049 -12.012208
-6.8492618 -40.814957 -15.598238
-4.729178 -40.423611 -16.53203
-7.2076674 -41.550617 14.714757
-5.0461755 -40.930687 13.252403
-7.1860261 -41.451298 10.128371
-5.0262127 -40.842976 8.8511324
-7.1823344 -41.385712 5.7749991
-5.0378137 -40.711952 4.5972314
-7.171082 -41.33424 1.5666406
-5.0342593 -40.71389 0.51055568
-7.1489358 -41.209156 -2.6065867
-5.0109425 -40.626202 -3.5722435
-7.1319566 -41.125221 -6.8132873
-4.9950094 -40.540581 -7.7126603
-7.1097722 -41.045746 -11.139522
-4.9992104 -40.504295 -12.009589
-7.142128 -41.016575 -15.691743
-4.982728 -40.439312 -16.550644
-7.5079002 -41.758221 14.804314
-5.2939835 -40.873947 13.244299
-7.4825802 -41.642105 10.18602
-5.2830405 -40.860199 8.8617229
-7.4765048 -41.565281 5.8063483
-5.3055558 -40.819012 4.6129098
-7.4608965 -41.491482 1.5743059
-5.2881126 -40.714043 0.5109548
-7.4466333 -41.414654 -2.6224258
-5.2707305 -40.676525 -3.5794449
-7.4199071 -41.279545 -6.8462682
-5.2506666 -40.563232 -7.7229533
-7.3973989 -41.201344 -11.193857
-5.2548885 -40.528709 -12.026163
-7.4264803 -41.153809 -15.761382
-5.2389569 -40.471256 -16.576563
-7.8244953 -42.036465 14.919698
-5.5556045 -40.921143 13.270389
-7.7966113 -41.910767 10.263246
-5.5428643 -40.894958 8.8764706
-7.7951312 -41.860844 5.854208
-5.555757 -40.784546 4.6127801
-7.7699332 -41.73819 1.5854458
-5.5455427 -40.737488 0.51166648
-7.7500939 -41.634014 -2.6392775
-5.5250521 -40.679008 -3.5825789
-7.7247343 -41.510983 -6.8923836
-5.5102015 -40.609417 -7.7380381
-7.7016397 -41.432629 -11.26932
-5.5141582 -40.574352 -12.04952
-7.7218561 -41.337658 -15.849643
-5.4934702 -40.484699 -16.595562
-8.1628246 -42.406124 15.068392
-5.8114219 -40.920322 13.281436
-8.1337976 -42.27887 10.365414
-5.7976384 -40.888039 8.8825235
-8.1212215 -42.172546 5.9046574
-5.8117948 -40.791042 4.6174622
-8.0870314 -42.007328 1.5975242
-5.8058934 -40.776394 0.51259291
-8.0670605 -41.905964 -2.6596043
-5.7835422 -40.707626 -3.5881574
-8.0397997 -41.777199 -6.9446459
-5.7706895 -40.65527 -7.753377
-8.0225487 -41.73222 -11.363981
-5.7644839 -40.550087 -12.05259
-8.0346174 -41.59634 -15.967427
-5.7405286 -40.441429 -16.591951
-8.5537863 -43.013557 15.302597
-6.0814486 -41.012386 13.323178
-8.5000381 -42.766384 10.497527
-6.0689993 -40.99073 8.9127541
-8.4754896 -42.602741 5.9720583
-6.0905104 -40.946461 4.6391978
-8.4437399 -42.455231 1.6164975
-6.0693851 -40.830185 0.51372766
-8.4071102 -42.273376 -2.686146
-6.0428104 -40.736084 -3.5938663
-8.3881617 -42.190693 -7.0218048
-6.0352445 -40.721703 -7.7729626
-8.3477716 -42.031181 -11.459124
-6.0291896 -40.621777 -12.084665
-8.3625832 -41.911541 -16.107817
-6.0141158 -40.577839 -16.662743
-6.3534846 -41.106953 13.366311
-6.3354101 -41.050011 8.9339275
-8.9067345 -43.377865 6.0882616
-6.3488364 -40.954742 4.6444621
-8.8503437 -43.11515 1.6436609
-6.3429651 -40.941692 0.51561058
-8.8135138 -42.938011 -2.7317636
-6.3197279 -40.873375 -3.6093318
-8.7489471 -42.635818 -7.1046882
-6.2956548 -40.752903 -7.7861452
-6.3012834 -40.732441 -12.128861
-8.7220325 -42.356934 -16.299257
-6.2798619 -40.649422 -16.707645
-6.6219902 -41.169132 13.399489
-6.6078506 -41.139114 8.9619761
-6.6207056 -41.043308 4.6590257
-6.6066012 -40.979794 0.51659125
-6.5907102 -40.96006 -3.6204891
-6.5707321 -40.869881 -7.8160505
-6.5664973 -40.788681 -12.157377
-6.5507407 -40.744328 -16.762859
-6.9140096 -41.364246 13.476548
-6.8902187 -41.277927 8.9882479
-6.9110255 -41.232243 4.6990495
-6.8840904 -41.094681 0.51856226
-6.8664584 -41.028419 -3.6161866
-6.8393636 -40.943565 -7.8391976
-6.8322525 -40.863079 -12.195781
-6.8375058 -40.815792 -16.800644
-7.2040439 -41.53067 13.544916
-7.1821365 -41.458672 9.0370312
-7.1914029 -41.347233 4.7170944
-7.1828041 -41.320263 0.52195513
-7.1560273 -41.204037 -3.6354671
-7.1273961 -41.113892 -7.880034
-7.1227264 -41.050171 -12.264433
-7.1307793 -41.020195 -16.902473
-7.5019207 -41.72588 13.623339
-7.4729853 -41.617638 9.0815058
-7.4915953 -41.56102 4.7466393
-7.4693804 -41.459549 0.52428365
-7.4426808 -41.348042 -3.6521332
-7.4216943 -41.304024 -7.9250546
-7.4104939 -41.20602 -12.324347
-7.4105849 -41.132469 -16.967154
-7.8168936 -41.996513 13.727101
-7.7881312 -41.893341 9.1519241
-7.8025351 -41.814735 4.7809939
-7.7810349 -41.720722 0.52818018
-7.7468305 -41.573044 -3.6761363
-7.7243457 -41.523014 -7.9760165
-7.7235312 -41.483871 -12.421391
-7.7060189 -41.317791 -17.062782
-8.1564121 -42.373653 13.866473
-8.1126423 -42.196396 9.2288303
-8.1288013 -42.128036 4.8224277
-8.1045704 -42.02319 0.53262895
-8.0675755 -41.866234 -3.7063696
-8.0556154 -41.87318 -8.0526228
-8.0216465 -41.662769 -12.489461
-8.0209637 -41.588959 -17.194765
-8.4709873 -42.647209 9.3386202
-8.4923544 -42.605209 4.8829231
-8.4603052 -42.464752 0.53887337
-8.4177313 -42.285229 -3.7479646
-8.4080715 -42.304386 -8.1453152
-8.350049 -41.97934 -12.599482
-8.342454 -41.872513 -17.332838
-8.9142132 -43.332973 4.9725065
-8.8130856 -42.894989 -3.8067324
-8.739048 -42.600834 -8.2125626
-8.7084227 -42.419044 -12.747252
-8.7010946 -42.315971 -17.538176
-9.1101866 -42.967407 -17.830999
-17.642035 -29.409077 13.92446
-16.953529 -27.117041 12.984816
-16.48592 -26.012644 12.504185
-16.353937 -25.457565 12.285367
-16.355682 -25.119997 12.170663
-16.363569 -24.798006 12.063078
-16.395256 -24.517443 11.975309
-16.424913 -24.2386 11.888115
-16.490116 -24.016169 11.828424
-17.23007 -25.114004 8.9679003
-16.56465 -23.810299 11.763218
-16.605009 -23.558636 11.689003
-16.751045 -23.784752 8.5539875
-16.684404 -23.365492 11.643748
-16.439432 -23.04068 8.3225088
-16.744095 -23.147438 11.586066
-16.605293 -25.519104 11.487752
-16.430372 -22.731686 8.2471561
-16.855003 -23.002218 11.564927
-16.352165 -24.795935 11.207166
-16.484444 -22.514217 8.2048006
-16.946762 -22.832262 11.531542
-16.373995 -24.500599 11.118883
-16.494343 -22.240143 8.1416502
-17.691631 -23.83215 5.6034651
-17.067099 -22.701988 11.518421
-16.388971 -24.200256 11.02801
-16.484987 -21.944815 8.0704155
-17.368036 -23.098742 5.4559784
-17.18495 -22.569096 11.504279
-16.412312 -23.917309 10.944757
-16.53503 -21.732456 8.029479
-17.729053 -25.814766 8.3707952
-17.341806 -22.487482 11.516701
-16.444855 -23.652344 10.869476
-16.601019 -21.543579 7.9971805
-17.391397 -24.993101 8.1388092
-17.506603 -22.415407 11.534584
-16.490576 -23.410313 10.804547
-16.684822 -21.379713 7.9742055
-17.224829 -24.432583 7.9905481
-16.678282 -21.351572 5.1149511
-17.663912 -22.332975 11.547722
-16.561359 -23.207024 10.757422
-17.375566 -27.072929 11.224767
-16.726734 -21.164373 7.9320207
-17.105955 -23.950546 7.8670797
-16.526194 -20.891354 5.0288997
-17.973772 -22.440361 11.660056
-16.629753 -23.003036 10.709964
-17.209188 -26.455187 11.012217
-16.794203 -20.983778 7.9028082
-16.735653 -23.130667 7.6313596
-16.547709 -20.656784 4.9967823
-16.671801 -22.765676 10.64688
-17.069559 -25.891573 10.821001
-16.872183 -20.818077 7.8792443
-16.452726 -22.448298 7.4393964
-16.540825 -20.390512 4.9568305
-16.762482 -22.597307 10.616041
-16.695293 -24.988853 10.486341
-16.995237 -20.708838 7.8772206
-16.471724 -22.187391 7.3862882
-16.549631 -20.147421 4.9223294
-16.854279 -22.432085 10.591758
-16.387245 -24.204927 10.215077
-17.093681 -20.570107 7.8677549
-16.480749 -21.917271 7.3288498
-16.56933 -19.920927 4.8960505
-16.952053 -22.276274 10.567104
-16.411203 -23.922796 10.138317
-17.19976 -20.441284 7.8587022
-16.519581 -21.690554 7.2867961
-16.643076 -19.761688 4.8819203
-17.688551 -23.239985 4.7690234
-17.205276 -20.441578 2.3302243
-17.079927 -22.16082 10.562516
-16.409849 -23.608959 10.03256
-17.312019 -20.32029 7.8603544
-16.497124 -21.387526 7.2312636
-16.669218 -19.548025 4.8533382
-17.357746 -22.517321 4.6382928
-16.928127 -19.863615 2.2817793
-17.178366 -22.007923 10.539681
-16.442822 -23.349377 9.9649391
-17.505013 -20.293261 7.8912973
-16.579933 -21.224319 7.2103429
-17.774908 -25.246546 7.4382443
-16.75218 -19.402903 4.8427377
-16.597422 -19.235226 2.2212517
-17.286789 -21.868864 10.523684
-16.45182 -23.060272 9.8844528
-17.660164 -20.220922 7.905158
-16.63028 -21.021603 7.1760073
-16.802937 -19.221979 4.8232236
-17.085114 -21.609941 4.494236
-16.585752 -18.984928 2.2040584
-17.468153 -21.821726 10.55238
-16.499752 -22.829863 9.8289013
-17.926777 -20.273756 7.9686661
-16.689629 -20.832634 7.1463237
-16.861824 -19.052147 4.8064799
-16.593395 -18.760094 2.1897357
-17.66106 -21.787338 10.587955
-16.575884 -22.641266 9.7913103
-17.407583 -26.404514 10.161716
-16.756147 -20.65465 7.1204042
-17.115633 -23.383606 6.9810286
-16.963297 -18.931459 4.8022017
-16.520491 -20.376741 4.2796087
-16.612177 -18.550705 2.1771522
-17.6514 -19.717476 -0.32371643
-17.930944 -21.844894 10.669194
-16.643875 -22.443901 9.7499409
-17.215145 -25.76716 9.9568958
-16.827642 -20.484589 7.09724
-17.060411 -18.806374 4.7969356
-16.54887 -20.157642 4.2548394
-16.594797 -18.304049 2.1601138
-17.39006 -19.187328 -0.31675851
-16.709023 -22.245152 9.7079592
-17.065783 -25.207376 9.7820168
-16.920311 -20.341627 7.0731316
-16.477764 -21.942019 6.610527
-17.169397 -18.694714 4.7952361
-16.553814 -19.913258 4.2246156
-16.656237 -18.146797 2.1535769
-17.262314 -18.813099 -0.31232312
-16.750433 -22.017637 9.6533432
-16.716276 -24.367704 9.4957981
-17.006519 -20.191963 7.0572433
-16.484592 -21.672888 6.5597944
-17.24752 -18.550009 4.7851748
-16.574471 -19.691059 4.1989732
-16.726597 -18.000484 2.1483529
-17.502846 -20.785803 1.690472
-17.099405 -18.407537 -0.30732632
-16.872164 -21.897503 9.6458807
-16.403036 -23.59935 9.2343397
-17.133617 -20.091364 7.0690889
-16.512398 -21.435202 6.5183969
-17.439844 -18.527575 4.8069019
-16.576481 -19.449949 4.1691689
-16.790163 -17.848011 2.142411
-17.319448 -20.313709 1.660689
-16.744068 -17.804667 -0.2989707
-16.968601 -21.745373 9.6245508
-16.411657 -23.305313 9.1585159
-17.217697 -19.94083 7.0531631
-16.520229 -21.175331 6.4700751
-17.590151 -18.458994 4.8170209
-16.665922 -19.31358 4.1617799
-17.648935 -22.613689 3.9426873
-16.838726 -17.680984 2.1347239
-16.650728 -17.489134 -0.29538241
-17.059786 -21.587795 9.6009569
-16.440113 -23.044064 9.0953197
-17.364012 -19.862589 7.0630417
-16.506979 -20.892736 6.4145565
-17.750927 -18.400309 4.8300395
-16.729544 -19.148493 4.1482482
-17.362452 -21.967371 3.8485041
-16.912193 -17.541334 2.1303523
-16.873371 -19.305555 1.5950791
-16.642115 -17.266687 -0.29334456
-17.167234 -21.459324 9.5928154
-16.479143 -22.78688 9.0360861
-17.509623 -19.800905 7.0642591
-16.591648 -20.734167 6.4018517
-16.761482 -18.957457 4.1213121
-17.227203 -21.541349 3.7978177
-16.980679 -17.396954 2.1300287
-16.59807 -18.760242 1.5634377
-16.641306 -17.050074 -0.30087063
-17.780613 -18.222713 -2.8692303
-17.315126 -21.374008 9.6019897
-16.461094 -22.470276 8.9504204
-17.68288 -19.75128 7.0851307
-16.638182 -20.53278 6.3710732
-17.402918 -23.759939 6.3114929
-16.836229 -18.808165 4.111237
-17.068615 -21.076601 3.7342753
-17.049639 -17.254519 2.1253586
-16.579376 -18.509014 1.5509498
-16.653074 -16.854 -0.2992081
-17.501814 -17.718176 -2.8066449
-17.492445 -21.316336 9.6362753
-16.523157 -22.268185 8.9208183
-17.951279 -19.791523 7.1422429
-16.70351 -20.35202 6.3451443
-16.888895 -18.629831 4.1016207
-16.661518 -20.299316 3.6092181
-17.17482 -17.166706 2.1267715
-16.606369 -18.312183 1.5361291
-16.698519 -16.699831 -0.28894931
-17.343819 -17.330849 -2.7538929
-17.667988 -21.262854 9.660924
-16.592028 -22.07663 8.8846979
-16.764597 -20.172766 6.3212099
-17.100517 -22.771997 6.1117435
-16.989824 -18.511621 4.0984693
-16.545485 -19.907602 3.557555
-17.277348 -17.05855 2.126466
-16.603945 -18.085255 1.5256108
-16.734282 -16.531471 -0.28780746
-17.193705 -16.971289 -2.7134714
-17.863251 -21.231453 9.6810493
-16.663692 -21.891008 8.8419752
-16.837875 -20.00989 6.3036146
-17.100685 -18.404438 4.101007
-16.567595 -19.687195 3.5397222
-17.408747 -16.978603 2.1292467
-16.62639 -17.888128 1.5239632
-16.799541 -16.393488 -0.28719443
-16.887819 -16.466007 -2.6492021
-18.341604 -21.530437 9.8685102
-16.72691 -21.696531 8.8047132
-16.910126 -19.847263 6.2849517
-16.50326 -21.423996 5.809752
-17.181458 -18.265327 4.0934234
-16.560711 -19.435686 3.5127058
-17.567501 -16.924358 2.1359217
-16.660484 -17.705696 1.5171018
-17.765009 -20.855541 1.0244871
-16.846621 -16.238825 -0.28629047
-16.700233 -16.084412 -2.6042449
-16.781183 -21.491861 8.7663078
-17.023691 -19.738535 6.2808123
-16.510792 -21.14909 5.7575207
-17.280085 -18.151392 4.091949
-16.584131 -19.240282 3.5034912
-17.726851 -16.871836 2.1372721
-16.746531 -17.579391 1.5136127
-16.925234 -16.106955 -0.29505271
-17.041609 -17.887104 -0.92375833
-16.700705 -15.864039 -2.5958583
-16.870251 -21.334755 8.7442837
-17.14366 -19.632763 6.2805099
-16.519775 -20.895 5.715837
-17.455513 -18.111822 4.1070967
-16.611717 -19.034853 3.4845788
-17.968134 -16.892576 2.1538255
-16.797789 -17.417936 1.5085574
-17.002586 -15.982909 -0.29468599
-16.680979 -17.294842 -0.89844072
-16.709044 -15.678053 -2.5821528
-16.982454 -21.207876 8.734827
-17.236694 -19.496542 6.270649
-16.539835 -20.658552 5.6788111
-17.590342 -18.028997 4.1127133
-16.64481 -18.838186 3.4672079
-17.610584 -22.000463 3.1672769
-16.844013 -17.252741 1.5031731
-17.076838 -15.856462 -0.29231566
-16.639334 -17.041153 -0.89024836
-16.702999 -15.48076 -2.5667155
-17.080198 -21.06373 8.7184591
-17.357395 -19.391972 6.2711535
-16.547018 -20.409573 5.6381736
-17.762108 -17.982973 4.1269979
-16.729158 -18.701126 3.4608099
-17.331457 -21.381508 3.093421
-16.904497 -17.103472 1.4991771
-16.864096 -18.833557 0.94959253
-17.158838 -15.73765 -0.29206085
-16.673513 -16.867855 -0.88652307
-16.734932 -15.320543 -2.5571287
-17.417694 -15.974907 -5.0824046
-17.167965 -20.909424 8.6950111
-17.538506 -19.349577 6.2948318
-16.601521 -20.235878 5.6230726
-18.168531 -18.164469 4.1938038
-16.769154 -18.499397 3.4348803
-17.210922 -20.972488 3.0598669
-17.013485 -17.004133 1.5010204
-16.638405 -18.360813 0.92658567
-17.264782 -15.649119 -0.28510091
-16.668827 -16.660419 -0.88033605
-16.77742 -15.194742 -2.5423665
-17.316776 -15.698076 -5.0218081
-17.320061 -20.832705 8.7071381
-17.694838 -19.282938 6.3083553
-16.67049 -20.067564 5.6046214
-16.853024 -18.364201 3.4289138
-16.987749 -20.443443 2.9978316
-17.095221 -16.877426 1.4990668
-16.606842 -18.101515 0.91862518
-17.393961 -15.572867 -0.28565079
-16.674307 -16.462618 -0.87527406
-16.829664 -15.055129 -2.536237
-17.443172 -17.224277 -3.3777146
-17.134478 -15.342339 -4.9415483
-17.495897 -20.783455 8.7312584
-16.725847 -19.884695 5.5821066
-16.921003 -18.212673 3.4199429
-16.58596 -19.712587 2.9055276
-17.16971 -16.744177 1.4965609
-16.634321 -17.909615 0.91404909
-17.558016 -15.526711 -0.28677493
-16.708305 -16.294947 -0.87179387
-16.888849 -14.922531 -2.5313098
-17.307911 -16.882221 -3.3314006
-16.831411 -14.885907 -4.8277116
-17.681761 -20.744539 8.7603245
-16.794548 -19.719469 5.564548
-17.025496 -18.101126 3.4185493
-17.277189 -16.643387 1.4969995
-16.624905 -17.680658 0.90755314
-17.680792 -15.443 -0.28722718
-16.775867 -16.16119 -0.87012851
-17.550926 -18.652515 -1.5913607
-16.952919 -14.794906 -2.5272586
-17.208963 -16.580875 -3.2927108
-16.755104 -14.636183 -4.7799749
-17.881712 -20.728182 8.7905312
-16.831968 -19.512373 5.5312266
-17.113371 -17.983587 3.4101665
-16.587091 -19.219019 2.8583858
-17.437283 -16.590412 1.4984981
-16.65946 -17.50098 0.90371782
-17.933628 -15.462669 -0.29902866
-16.82379 -16.012829 -0.86823982
-17.343382 -18.194572 -1.5643922
-17.02039 -14.647995 -2.5306447
-16.747183 -14.439544 -4.7552071
-18.330664 -20.986851 8.9477606
-16.964476 -19.423721 5.5355
-17.214413 -17.868921 3.4083881
-16.617792 -19.017418 2.843514
-17.601862 -16.542419 1.5038902
-16.70764 -17.337318 0.90054357
-17.696806 -20.254925 0.34177288
-16.867388 -15.858212 -0.86545175
-17.110907 -14.5441 -2.5307868
-16.728064 -15.727871 -3.1625054
-16.786312 -14.294661 -4.7413244
-17.041258 -19.271677 5.5218644
-17.315306 -17.754318 3.4067304
-16.615147 -18.780571 2.8232903
-17.753197 -16.480673 1.5081517
-16.768885 -17.188534 0.89814299
-16.937374 -15.729342 -0.86407429
-17.221277 -14.456841 -2.5339429
-16.696381 -15.506175 -3.1384687
-16.74505 -14.083188 -4.7051735
-17.14341 -19.149128 5.516788
-17.479534 -17.704071 3.4176044
-16.637749 -18.575195 2.8077106
-18.075092 -16.574177 1.5268288
-16.795835 -17.006136 0.89398062
-17.295946 -19.312578 0.32942903
-17.032265 -15.623923 -0.86400813
-16.681973 -16.867813 -1.4764715
-17.285103 -14.330544 -2.5303483
-16.724909 -15.342612 -3.126076
-16.779247 -13.937067 -4.6906643
-17.451975 -14.49299 -7.2938113
-17.215433 -18.993763 5.5023565
-17.651306 -17.659986 3.4299378
-16.708448 -18.425383 2.8005097
-16.869997 -16.872885 0.8924005
-17.128902 -15.52011 -0.86406314
-16.675924 -16.656034 -1.4668632
-17.401428 -14.247728 -2.5345314
-16.719877 -15.150126 -3.1077013
-16.863327 -13.832931 -4.6903529
-17.394184 -18.955917 5.5222082
-17.784624 -17.576344 3.4348223
-16.755817 -18.251307 2.7896259
-16.949823 -16.745958 0.89117122
-16.783199 -18.283537 0.31536549
-17.201132 -15.39442 -0.86292547
-16.675629 -16.452591 -1.4579297
-17.545944 -14.187115 -2.5428529
-16.736742 -14.979433 -3.0936944
-16.885628 -13.678761 -4.6731219
-17.56633 -18.909288 5.5399208
-16.819023 -18.096003 2.7816103
-17.032042 -16.621912 0.89011472
-16.622099 -17.886478 0.31027019
-17.304007 -15.296312 -0.86336154
-16.659143 -16.235815 -1.4477513
-17.69043 -14.125312 -2.5511832
-16.780502 -14.834168 -3.0849004
-17.673954 -17.243706 -4.0332227
-16.96397 -13.570679 -4.6716709
-17.324818 -15.309587 -5.5722537
-16.844887 -13.472742 -6.9352498
-17.702457 -18.82287 5.5463219
-16.880022 -17.939621 2.7734408
-17.121979 -16.505783 0.88950527
-16.627174 -17.673223 0.30833495
-17.419691 -15.209192 -0.864461
-16.684076 -16.061691 -1.4413261
-17.93976 -14.145015 -2.5745747
-16.85763 -14.719069 -3.0824175
-17.43276 -16.800835 -3.9545822
-17.031935 -13.454497 -4.6675649
-17.12092 -14.943328 -5.4770789
-16.795782 -13.265307 -6.8813915
-18.001762 -18.907312 5.6036444
-16.953226 -17.797337 2.7674739
-17.221769 -16.399305 0.88944507
-16.627054 -17.457216 0.30634055
-17.577459 -15.157876 -0.86765832
-16.746231 -15.924704 -1.4382273
-16.900799 -14.574971 -3.0739005
-17.103357 -13.341304 -4.6646152
-16.788361 -14.472542 -5.3421817
-16.808834 -13.108949 -6.8536549
-17.034969 -17.664833 2.7630715
-17.311146 -16.283049 0.88888413
-16.638298 -17.25576 0.30459118
-17.72263 -15.094447 -0.87023598
-16.792238 -15.773378 -1.4338391
-17.513279 -18.156696 -2.1977451
-16.963108 -14.448166 -3.069051
-17.189491 -16.164249 -3.8541067
-17.171457 -13.225758 -4.6609678
-16.787071 -14.292822 -5.3137641
-16.773792 -12.916882 -6.806921
-17.148888 -17.565969 2.764015
-17.458786 -16.221172 0.89133757
-16.684155 -17.092175 0.30350497
-18.010017 -15.149542 -0.87976664
-16.854294 -15.638116 -1.4309176
-17.343634 -17.76141 -2.1627393
-17.04244 -14.33624 -3.0674312
-17.279795 -13.141067 -4.6683993
-16.764288 -14.096911 -5.2790728
-16.801849 -12.775027 -6.7863688
-17.244501 -17.448427 2.7621171
-17.602972 -16.155024 0.89362109
-16.742455 -16.942665 0.30266869
-16.917326 -15.504523 -1.4281651
-17.216661 -17.416294 -2.1335394
-17.120474 -14.223413 -3.0657098
-16.726597 -15.346579 -3.7078121
-17.349913 -13.027143 -4.6656594
-16.745031 -13.906219 -5.2460403
-16.845661 -12.645976 -6.7725964
-17.35449 -17.345539 2.7626348
-17.782076 -16.119511 0.89767534
-16.764774 -16.758324 0.30120754
-16.957985 -15.351402 -1.4236186
-16.945768 -16.933186 -2.087055
-17.198196 -14.110525 -3.0640657
-16.701603 -15.135953 -3.6816146
-17.489441 -12.964859 -4.6817002
-16.763035 -13.748254 -5.2251534
-16.917265 -12.538168 -6.7703247
-17.507673 -17.285208 2.7700839
-16.842485 -16.630655 0.30076471
-17.062773 -15.256818 -1.4245297
-16.686926 -16.471151 -2.0426898
-17.295185 -14.013427 -3.0659683
-16.748175 -14.992023 -3.6715333
-17.607063 -12.885404 -4.6919332
-16.811825 -13.616585 -5.2142196
-16.957487 -12.407503 -6.755827
-17.446323 -14.139194 -7.8428063
-17.692356 -17.254456 2.7825005
-16.905628 -16.489363 0.29374158
-17.164188 -15.15901 -1.4252042
-16.702568 -16.285467 -2.0323339
-17.417599 -13.93645 -3.0724516
-16.730022 -14.791874 -3.6475883
-17.78664 -12.849981 -4.7186866
-16.852425 -13.479074 -5.2010612
-17.628853 -15.59522 -6.2945147
-16.987349 -12.270029 -6.7376018
-17.328667 -13.868546 -7.7515154
-17.927397 -17.270327 2.8027468
-16.960255 -16.340776 0.29294303
-17.244694 -15.042775 -1.4241976
-16.687666 -16.072384 -2.0184824
-17.535757 -13.855369 -3.0782399
-16.768444 -14.643508 -3.6363063
-16.905453 -13.352225 -5.1920443
-17.447205 -15.244727 -6.1961412
-17.060051 -12.163951 -6.7367072
-17.154408 -13.557244 -7.636209
-18.274197 -17.399229 2.8359222
-17.06498 -16.223768 0.29004735
-17.316938 -14.932907 -1.4238129
-16.697882 -15.89177 -2.0133896
-17.718149 -13.812252 -3.0930655
-16.814175 -14.504854 -3.6298997
-17.658142 -16.812237 -4.6017561
-16.990005 -13.243329 -5.191875
-17.295107 -14.917829 -6.1081128
-17.152493 -12.077714 -6.7417579
-16.848621 -13.142962 -7.4628592
-17.153069 -16.108297 0.28985915
-17.475109 -14.883324 -1.4292823
-16.698458 -15.698181 -2.001807
-17.949198 -13.816145 -3.1185417
-16.88763 -14.388436 -3.6266296
-17.411266 -16.374689 -4.5111499
-17.043661 -13.117831 -5.1835771
-17.10495 -14.571731 -6.0092649
-17.231537 -11.975896 -6.7438159
-16.820505 -12.955806 -7.4150548
-17.264786 -16.014988 0.29008093
-17.604052 -14.807738 -1.4323701
-16.771505 -15.574103 -1.9990698
-16.937344 -14.252355 -3.6184568
-17.118158 -13.008696 -5.18186
-16.781176 -14.119134 -5.8649707
-17.300129 -11.866812 -6.7420373
-16.817392 -12.78977 -7.3789477
-17.350737 -15.897767 0.28988063
-17.753494 -14.748386 -1.4371393
-16.821161 -15.429086 -1.9936668
-16.952194 -14.088091 -3.6030939
-17.142029 -15.729555 -4.391046
-17.201992 -12.90667 -5.1831665
-16.794188 -13.954986 -5.8394804
-17.378637 -11.764514 -6.7443748
-16.788576 -12.606013 -7.3322263
-17.499294 -15.837474 0.29073361
-16.873102 -15.287156 -1.9886676
-17.055521 -13.997926 -3.6067317
-16.823816 -15.247331 -4.2853408
-17.284954 -12.803262 -5.1843014
-16.76811 -13.760269 -5.8009467
-17.566128 -11.734905 -6.7890639
-16.805651 -12.457104 -7.3059077
-17.679243 -15.80409 0.29210666
-16.950827 -15.169234 -1.9868206
-17.135803 -13.888729 -3.6056194
-16.750519 -14.994734 -4.2431545
-17.367548 -12.700151 -5.1856031
-16.79302 -13.609141 -5.7805662
-17.693497 -11.663615 -6.8105021
-16.856934 -12.335577 -7.2951598
-17.87249 -15.780613 0.29369417
-16.974409 -15.003795 -1.9787567
-17.228188 -13.789315 -3.607187
-16.758455 -14.818743 -4.2221942
-17.5282 -12.653943 -5.2103815
-16.772051 -13.422488 -5.7448893
-17.861172 -11.617558 -6.8474751
