# .PCD v0.7 - Point Cloud Data file format
VERSION 0.7
FIELDS x y z
SIZE 4 4 4
TYPE F F F
COUNT 1 1 1
WIDTH 1510
HEIGHT 1
VIEWPOINT 0 0 0 1 0 0 0
POINTS 1510
DATA ascii
19.766014 -41.113647 -1.7148937
22.350172 -41.237614 -2.911339
25.456375 -41.900982 -4.278347
21.980743 -41.084118 6.4181828
24.664808 -41.165379 5.4003749
17.014238 -41.083996 3.8825135
19.413111 -41.046761 2.8292556
21.978855 -41.112125 1.7526532
24.605837 -41.096626 0.59509224
17.031908 -41.132793 -0.56053317
19.459791 -41.120914 -1.7101842
22.000692 -41.194172 -2.8986866
25.130592 -41.942562 -4.2667675
21.686752 -41.139515 6.4059277
24.29405 -41.11673 5.3743358
16.730993 -41.111847 3.8753707
19.154484 -41.151348 2.8283103
21.659174 -41.119003 1.7472478
24.276161 -41.116337 0.59320951
16.738964 -41.137642 -0.55918902
19.164446 -41.147938 -1.7063854
21.689949 -41.218994 -2.8910139
24.764482 -41.912697 -4.2481914
21.372021 -41.152622 6.3874292
23.945286 -41.100201 5.352869
16.43692 -41.109928 3.8656096
18.839314 -41.132065 2.8189867
21.344721 -41.13213 1.7422076
23.938711 -41.119019 0.59111786
16.4508 -41.15094 -0.55798715
18.840334 -41.109245 -1.6999546
21.332603 -41.150646 -2.8769851
24.404173 -41.887634 -4.2303934
21.01861 -41.086533 6.3570333
23.621746 -41.122917 5.3368502
16.143721 -41.106586 3.8559079
18.534721 -41.13176 2.8111191
21.010143 -41.102314 1.7354516
23.597446 -41.110916 0.58890879
16.145817 -41.118221 -0.55618966
18.547476 -41.134846 -1.6962749
21.01856 -41.161026 -2.8686399
24.100906 -41.956879 -4.2223716
20.741236 -41.16534 6.3494167
23.30772 -41.158913 5.3228612
15.873104 -41.15797 3.8515191
18.215837 -41.095455 2.8009462
20.71489 -41.145725 1.731885
23.287676 -41.154076 0.58746904
15.855829 -41.119564 -0.55488133
18.222879 -41.085884 -1.689613
20.722973 -41.204453 -2.8627508
23.724823 -41.895264 -4.2014418
17.932447 -41.132595 7.3278337
20.39015 -41.094105 6.3190117
22.971962 -41.152874 5.3037515
15.572494 -41.128429 3.8397405
17.939156 -41.150982 2.7971756
20.398865 -41.144642 1.7265385
22.934317 -41.116192 0.58490843
15.576022 -41.144218 -0.55391395
17.952328 -41.155396 -1.6879098
20.402071 -41.194153 -2.8532839
23.41394 -41.944439 -4.1918869
17.655045 -41.18428 7.3176041
20.11376 -41.169613 6.3115258
22.624153 -41.120628 5.2816043
15.293902 -41.153408 3.8332391
17.621397 -41.108818 2.7869077
20.072994 -41.119442 1.7202801
22.607574 -41.12149 0.58299947
15.285656 -41.137783 -0.55255419
17.628258 -41.098766 -1.6811193
20.056599 -41.129238 -2.8402102
23.046402 -41.887875 -4.1720223
17.321278 -41.100273 7.2836566
19.778233 -41.120655 6.2852974
22.278555 -41.08741 5.2596812
14.988333 -41.101757 3.8197899
17.330847 -41.126045 2.7808135
19.757437 -41.111004 1.7148229
22.266706 -41.096779 0.58070111
14.996121 -41.129787 -0.55120045
17.332521 -41.103645 -1.6769371
19.751162 -41.141766 -2.8326528
22.704779 -41.873264 -4.1566133
16.236013 -44.571289 -10.189993
17.04961 -41.159538 7.2754827
19.464947 -41.113235 6.265789
21.986965 -41.15023 5.2503533
14.694144 -41.076351 3.8089781
17.0184 -41.087299 2.7710807
19.453592 -41.123184 1.7103198
21.950985 -41.11438 0.5790357
14.719228 -41.153244 -0.55029404
17.045849 -41.126854 -1.6735853
19.428473 -41.114311 -2.8225014
22.396841 -41.917114 -4.1472464
15.749572 -44.096916 -5.2708769
15.701091 -43.939301 -10.023292
16.752409 -41.15448 7.2562814
19.168549 -41.137978 6.2515159
21.65181 -41.128117 5.2304835
14.418924 -41.100456 3.8029377
16.751984 -41.156582 2.7687688
19.137012 -41.104542 1.7046288
21.633583 -41.125271 0.57730871
14.423361 -41.119976 -0.54865545
16.759407 -41.147762 -1.67022
19.147728 -41.172318 -2.8183644
22.061516 -41.906147 -4.13269
15.314691 -43.724468 -5.2150273
15.274885 -43.588779 -9.9217644
15.208606 -43.399929 -14.784553
16.455873 -41.130318 7.2433286
18.848532 -41.096615 6.2208524
21.348036 -41.174896 5.2101064
14.160702 -41.156769 3.7894962
16.468376 -41.165451 2.7541156
18.836674 -41.127586 1.6986843
21.304276 -41.098198 0.57120776
14.145969 -41.127712 -0.5419302
16.45295 -41.14658 -1.6570266
18.836847 -41.125629 -2.8006072
21.737869 -41.877254 -4.1342554
14.883879 -43.339737 -5.1662908
14.864584 -43.317871 -9.8369226
14.868176 -43.228107 -14.694185
16.163713 -41.130051 7.2256804
18.554665 -41.119858 6.2070203
20.99206 -41.103569 5.1846843
13.865105 -41.115974 3.7778356
16.141136 -41.07653 2.7414889
18.538452 -41.141376 1.6945237
20.981907 -41.091461 0.56931406
13.857612 -41.107719 -0.54053622
16.129438 -41.066681 -1.6497921
18.549683 -41.163956 -2.7954135
21.44663 -41.943596 -4.1277351
14.526939 -43.160656 -5.1342216
14.498495 -43.110874 -9.7695303
14.516329 -43.062443 -14.60732
15.896396 -41.190517 7.2190304
18.248642 -41.112709 6.1889219
20.675249 -41.103935 5.1686316
13.596195 -41.150749 3.7732942
15.868474 -41.12215 2.7379835
18.23196 -41.13319 1.6895471
20.677322 -41.115921 0.56788433
13.594055 -41.158485 -0.54009676
15.866091 -41.136192 -1.6486428
18.241348 -41.151997 -2.786948
21.084364 -41.866894 -4.107378
14.206216 -43.080315 -5.1141987
14.167022 -42.996647 -9.7237625
14.178739 -42.929409 -14.532406
15.600188 -41.173347 7.19911
17.92421 -41.059361 6.1642194
20.357018 -41.097519 5.1520214
13.303016 -41.108475 3.761862
15.585227 -41.137886 2.7326124
17.920935 -41.110561 1.6840692
20.367693 -41.126995 0.56630057
13.304558 -41.127666 -0.53861088
15.587526 -41.164486 -1.6459122
17.939524 -41.150803 -2.7793601
20.794462 -41.929718 -4.1009464
13.883236 -42.985928 -5.0927849
13.856874 -42.940041 -9.6915503
13.860169 -42.845894 -14.475075
15.290395 -41.125381 7.153769
17.629162 -41.119976 6.1604023
20.092054 -41.179287 5.1662683
13.017146 -41.113026 3.7647977
15.285133 -41.10445 2.726825
17.625437 -41.138271 1.6745716
20.059605 -41.145523 0.56491876
13.033509 -41.132717 -0.52817667
15.291745 -41.137466 -1.6403813
17.642244 -41.162777 -2.7734172
20.437599 -41.902435 -4.0811887
13.559688 -42.952389 -5.0578113
13.542953 -42.848488 -9.6523027
13.562919 -42.846695 -14.442492
14.996651 -41.105736 7.1342092
17.343931 -41.150051 6.1488481
19.751207 -41.119019 5.143405
12.737722 -41.105255 3.7568583
15.011689 -41.140068 2.7230258
17.326836 -41.136795 1.6701522
19.7397 -41.128105 0.56300604
12.75788 -41.13776 -0.52722627
14.989698 -41.095245 -1.6349992
17.334288 -41.139595 -2.7646368
20.108061 -41.87701 -4.0666189
13.251239 -42.890285 -5.0408292
16.313095 -44.821571 -6.5660233
13.249639 -42.833324 -9.6303911
16.206461 -44.481689 -11.408713
13.23005 -42.704098 -14.366793
16.115236 -44.241421 -16.452566
14.720359 -41.130508 7.1227627
17.029222 -41.1063 6.1241536
19.457014 -41.151623 5.1349068
12.467835 -41.125145 3.7585618
14.711638 -41.099163 2.714576
17.02146 -41.115189 1.66943
19.418741 -41.104031 0.56386089
12.443681 -41.116058 -0.52584559
14.702939 -41.090298 -1.6311833
17.033028 -41.133335 -2.7570882
19.841192 -41.951088 -4.0624223
13.00787 -42.957054 -5.0400052
15.701088 -43.98254 -6.4287972
12.96146 -42.836449 -9.6129236
15.688978 -43.900681 -11.234683
12.950862 -42.756809 -14.356708
15.627644 -43.733547 -16.227814
14.441615 -41.145695 7.1099133
16.74618 -41.135105 6.1130204
19.145882 -41.145023 5.1193275
12.191715 -41.121452 3.7513175
14.430041 -41.105652 2.7091053
16.714603 -41.085487 1.6640285
19.122595 -41.1287 0.5625791
12.159868 -41.085899 -0.52449572
14.432538 -41.128448 -1.6291517
16.733185 -41.121231 -2.7493429
19.491894 -41.875431 -4.0434375
12.717364 -42.945946 -5.0294514
15.278976 -43.644032 -6.3654952
12.697062 -42.910728 -9.611928
15.249869 -43.512646 -11.111224
12.685293 -42.825432 -14.353344
15.197988 -43.369129 -16.057686
14.169645 -41.167023 7.098392
16.463562 -41.108646 6.0968843
18.820721 -41.121326 5.0846868
11.928585 -41.127663 3.7363584
14.148383 -41.109596 2.7189484
16.432465 -41.093323 1.6579723
18.798073 -41.080162 0.55023271
11.913479 -41.102997 -0.52384883
14.146089 -41.108124 -1.6249195
16.438761 -41.137413 -2.7434533
19.187277 -41.928459 -4.0364776
12.407761 -42.940895 -5.0191464
14.889781 -43.354881 -6.3103352
12.400928 -42.883839 -9.5885258
14.897056 -43.345554 -11.045306
12.435702 -42.843719 -14.336414
14.846626 -43.19455 -15.959801
13.880364 -41.145237 7.0798173
16.165865 -41.09412 6.0799036
18.517807 -41.124443 5.0709276
11.666427 -41.166286 3.7332935
13.86771 -41.112144 2.713438
16.161192 -41.145466 1.6560439
18.519278 -41.136143 0.54945016
11.635793 -41.08614 -0.52271414
13.865427 -41.110653 -1.621626
16.145203 -41.133472 -2.7365322
18.859873 -41.890423 -4.0215993
12.14156 -43.007416 -5.0181189
14.523781 -43.149231 -6.2673135
12.126595 -42.9203 -9.5798616
14.52979 -43.13623 -10.969042
12.163621 -42.887615 -14.325858
14.49614 -43.032005 -15.866579
13.581919 -41.091305 7.0560641
15.88595 -41.121441 6.0694108
18.201223 -41.093025 5.0531869
11.384557 -41.132111 3.7237887
13.585222 -41.105774 2.7074647
15.855519 -41.106697 1.6505367
18.204527 -41.10899 0.54758519
11.372101 -41.103531 -0.52204907
13.581986 -41.118782 -1.61856
15.874234 -41.152603 -2.7315509
18.560665 -41.849934 -4.0076776
11.905988 -43.112568 -5.022377
14.219524 -43.106312 -6.248467
11.863894 -43.000938 -9.5813684
14.161472 -43.002468 -10.91041
11.884594 -42.956696 -14.323047
14.16976 -42.943306 -15.801105
13.313711 -41.125004 7.0476899
15.589304 -41.102058 6.0523167
17.909462 -41.113766 5.042129
11.119598 -41.155437 3.7196536
13.327241 -41.171352 2.7063472
15.573236 -41.12463 1.6473889
17.903927 -41.109669 0.54612064
11.095114 -41.081577 -0.52089572
13.305862 -41.128498 -1.6156982
15.591036 -41.16898 -2.7262368
18.255651 -41.853252 -3.9971931
11.639471 -43.178284 -5.0216184
13.900054 -43.023422 -6.2239714
11.609514 -43.108913 -9.5893736
13.827351 -42.87151 -10.855453
11.620384 -43.027302 -14.322544
13.843645 -42.836498 -15.730254
13.031939 -41.125187 7.0339489
15.296899 -41.146362 6.0420847
17.633936 -41.150967 5.0503564
10.832059 -41.124794 3.7195449
13.036264 -41.131145 2.6831553
15.269664 -41.102997 1.6449834
17.609848 -41.130379 0.55494851
10.813067 -41.132309 -0.52060676
13.021941 -41.102982 -1.611554
15.283436 -41.129463 -2.7172546
17.93915 -41.849304 -3.9858792
11.391752 -43.30722 -5.028451
13.560951 -42.914742 -6.1955118
11.370207 -43.262501 -9.6080379
13.560915 -42.863064 -10.833976
11.358224 -43.166122 -14.343948
13.529916 -42.769905 -15.674702
12.749335 -41.107574 7.0174241
15.004205 -41.129974 6.0260453
17.321428 -41.116737 5.0330162
10.570983 -41.157253 3.7165442
12.763889 -41.146679 2.6790092
14.999395 -41.147148 1.6430361
17.309019 -41.123322 0.55340987
10.540679 -41.120617 -0.51963043
12.755977 -41.138508 -1.6098478
14.997316 -41.130688 -2.7112048
17.663235 -41.91399 -3.9816422
11.139912 -43.43129 -5.0348253
13.265335 -42.893539 -6.1805835
16.459736 -45.068981 -7.8398042
11.122796 -43.402695 -9.6238356
13.265348 -42.84111 -10.807651
16.236254 -44.486103 -12.658027
11.110899 -43.304192 -14.366902
13.233465 -42.743065 -15.634811
16.080795 -44.17115 -17.745501
12.475108 -41.113331 7.005208
14.716481 -41.12326 6.0117183
17.035604 -41.142036 5.0232234
10.293487 -41.122429 3.7076263
12.47952 -41.119911 2.6722305
14.71684 -41.155079 1.639716
17.00749 -41.110611 0.55182409
10.270137 -41.112339 -0.51871967
12.469242 -41.10368 -1.6054608
14.724234 -41.16481 -2.7074478
17.344238 -41.87315 -3.9675779
10.893652 -43.580574 -5.0442877
12.983094 -42.911987 -6.1716466
15.769231 -44.014542 -7.6394076
10.861369 -43.49054 -9.6283541
12.961722 -42.787975 -10.773979
15.706646 -43.868923 -12.454758
10.864366 -43.449081 -14.392585
12.958424 -42.782104 -15.619714
15.608353 -43.705849 -17.519762
12.216887 -41.169834 7.0019307
14.43987 -41.144379 6.0017405
16.741493 -41.14418 5.010848
10.020514 -41.10091 3.7000725
12.201708 -41.110577 2.666708
14.411961 -41.096085 1.6338116
16.707584 -41.097763 0.55026513
10.009311 -41.140167 -0.51828623
12.201519 -41.127914 -1.6034528
14.427444 -41.12915 -2.699229
17.021446 -41.817776 -3.9523604
10.668491 -43.820961 -5.0644393
12.709514 -42.956936 -6.166779
15.336598 -43.648655 -7.5594263
10.624839 -43.681881 -9.6561003
12.696517 -42.85854 -10.771928
15.271573 -43.492847 -12.321151
10.623845 -43.622826 -14.428273
12.667448 -42.765522 -15.584988
15.17793 -43.338364 -17.334793
11.903972 -41.101967 6.9873528
14.146507 -41.075214 5.9905019
16.431934 -41.115364 4.9952908
9.7657003 -41.151367 3.6869557
11.914705 -41.094715 2.6507947
14.141694 -41.13187 1.6129057
16.425608 -41.101501 0.54393691
9.7609863 -41.113064 -0.53095323
11.919676 -41.081097 -1.5951903
14.169124 -41.186821 -2.7070556
16.72077 -41.815918 -3.9229982
10.417541 -44.055103 -5.1086869
12.436389 -42.959137 -6.1747117
14.917233 -43.355644 -7.5000324
10.400752 -43.947819 -9.6826963
12.407331 -42.843121 -10.759999
14.906451 -43.274403 -12.245105
10.405351 -43.828072 -14.469385
12.411806 -42.826225 -15.57588
14.829185 -43.159954 -17.209591
11.64754 -41.160049 6.9849458
13.896073 -41.166752 5.9913034
16.150328 -41.141502 4.9863319
9.4926443 -41.122265 3.67906
11.643637 -41.10107 2.6465461
13.85499 -41.116798 1.6089507
16.141045 -41.119843 0.54285872
9.5051003 -41.157307 -0.53076136
11.658425 -41.121868 -1.5939658
13.873006 -41.145061 -2.6986651
16.44076 -41.858871 -3.91749
10.190034 -44.305183 -5.1303391
12.167264 -43.015903 -6.1720243
14.550582 -43.148796 -7.4486647
10.16571 -44.162048 -9.715971
12.141966 -42.910492 -10.758004
14.553205 -43.106064 -12.171974
10.176016 -44.063347 -14.526173
12.1409 -42.873692 -15.565757
14.468609 -42.966618 -17.096777
11.350877 -41.07193 6.9580407
13.583425 -41.070461 5.9650469
15.859055 -41.139877 4.9742475
9.2285404 -41.128021 3.6744404
11.369568 -41.093464 2.6415148
13.590081 -41.163605 1.6074889
15.851171 -41.121441 0.54158562
9.2372799 -41.147568 -0.52989483
11.380474 -41.100849 -1.5904143
13.604013 -41.180161 -2.6954417
16.139313 -41.84412 -3.9067676
9.9678125 -44.589725 -5.1561084
11.902566 -43.087845 -6.171751
14.223892 -43.050644 -7.4165154
9.9459295 -44.453251 -9.766428
11.885033 -43.00803 -10.763972
14.204955 -42.942181 -12.100857
9.9544306 -44.343117 -14.597992
11.871907 -42.926788 -15.558293
14.1443 -42.871517 -17.024082
11.106218 -41.168861 6.9627862
13.316854 -41.108856 5.9586439
15.553599 -41.097092 4.9574413
8.9705 -41.158577 3.6721833
11.102928 -41.109581 2.6381216
13.28265 -41.07737 1.6009083
15.572702 -41.149612 0.54068792
8.9733276 -41.151649 -0.52922839
11.114462 -41.119568 -1.5884697
13.301224 -41.108772 -2.6853762
15.835693 -41.819378 -3.8953123
9.741765 -44.869926 -5.1814995
11.627001 -43.119427 -6.1659393
13.889468 -42.920799 -7.3793244
9.7338142 -44.793388 -9.8278484
11.624549 -43.093616 -10.767337
13.892672 -42.878754 -12.058736
9.7347803 -44.644688 -14.67733
11.623922 -43.056732 -15.579247
13.820553 -42.7705 -16.949976
10.822807 -41.119995 6.9431586
13.038975 -41.109749 5.9470634
15.273355 -41.116955 4.9484396
8.6861868 -41.063454 3.6588721
10.822506 -41.070774 2.6313202
13.023144 -41.135323 1.6000226
15.280826 -41.139141 0.53930819
8.7133446 -41.171383 -0.52878469
10.84177 -41.110462 -1.5855182
13.018214 -41.093277 -2.6790953
15.558611 -41.86145 -3.8902655
9.5466194 -45.310242 -5.2254839
11.383627 -43.271366 -6.1775622
13.603476 -42.934597 -7.3672071
9.5428686 -45.250988 -9.9152136
11.370675 -43.205029 -10.777539
13.58429 -42.821274 -12.018904
9.5309343 -45.035637 -14.786354
11.357932 -43.121231 -15.577074
13.523901 -42.747169 -16.907524
10.555267 -41.127075 6.9332876
12.760445 -41.105099 5.9349527
14.989185 -41.123207 4.9380302
8.4381971 -41.136139 3.6606665
10.559702 -41.095177 2.6286831
12.744572 -41.130787 1.5967743
14.965444 -41.060184 0.53705925
8.43783 -41.113338 -0.52736419
10.577652 -41.130856 -1.5837718
12.762757 -41.162468 -2.6784508
15.243765 -41.797928 -3.875597
9.3856306 -45.941696 -5.2915659
11.140052 -43.426735 -6.189868
13.314449 -42.935566 -7.3532162
16.347298 -44.807613 -9.0073004
9.3543739 -45.745594 -10.010824
11.130903 -43.37352 -10.80233
13.287702 -42.795654 -11.988603
11.108232 -43.248905 -15.59828
13.244379 -42.774506 -16.885876
16.131397 -44.226219 -19.129625
10.292416 -41.149883 6.9263563
12.497921 -41.149475 5.9301763
14.70785 -41.134071 4.9284053
8.1763992 -41.14069 3.6565375
10.291773 -41.097004 2.624711
12.467955 -41.129017 1.5937057
14.71522 -41.156834 0.5371322
8.1677542 -41.075577 -0.52622712
10.30848 -41.128769 -1.581226
12.465571 -41.093716 -2.6689494
14.979819 -41.870579 -3.8737378
10.896364 -43.586216 -6.2029529
13.048183 -43.007992 -7.3517704
15.724206 -43.93515 -8.8123541
9.2719822 -46.803978 -10.229796
10.880284 -43.503864 -10.817961
12.998012 -42.787975 -11.963883
15.677497 -43.802513 -13.683959
9.2096167 -46.316254 -15.168562
10.863069 -43.397816 -15.62765
12.944428 -42.732025 -16.837433
15.62229 -43.660786 -18.843235
10.01439 -41.108242 6.9088736
12.219719 -41.139614 5.9178376
14.415294 -41.109798 4.9148064
7.9088974 -41.112568 3.6496565
10.027122 -41.109001 2.6214981
12.201697 -41.158669 1.5919236
14.425574 -41.141281 0.53576404
7.9095283 -41.093533 -0.5258255
10.044304 -41.143646 -1.5793988
12.209192 -41.155952 -2.6680756
14.685122 -41.854816 -3.8638699
10.656929 -43.76812 -6.2194166
12.739848 -42.938282 -7.326354
15.316341 -43.637669 -8.7336712
10.64293 -43.692085 -10.848323
12.723644 -42.827946 -11.953005
15.265661 -43.491119 -13.557161
10.61927 -43.556725 -15.661117
12.674145 -42.78418 -16.827024
15.207701 -43.338623 -18.66357
9.7538567 -41.134701 6.903132
11.940207 -41.121323 5.9045563
14.126974 -41.09333 4.9023824
7.6496053 -41.123333 3.6463768
9.7645988 -41.127235 2.6187909
11.920557 -41.134884 1.5881447
14.140974 -41.136253 0.53455848
7.6475105 -41.08905 -0.52515781
9.7726421 -41.12447 -1.576331
11.918549 -41.099453 -2.6596217
14.394142 -41.845623 -3.8547955
10.412861 -43.936859 -6.2341981
12.464461 -42.975368 -7.3194938
14.922683 -43.365788 -8.6607676
10.396943 -43.850636 -10.871645
12.43566 -42.819279 -11.929066
14.889228 -43.266384 -13.458375
10.40251 -43.834705 -15.737819
12.382889 -42.762726 -16.788387
14.855541 -43.181278 -18.556208
9.4853516 -41.124737 6.8915625
11.657884 -41.08884 5.8895102
13.848537 -41.10199 4.8931861
7.3890634 -41.124557 3.6423965
9.4975376 -41.123486 2.6147923
11.641208 -41.112865 1.584507
13.864233 -41.15081 0.53363216
7.3914123 -41.113865 -0.52488542
9.5117273 -41.147339 -1.5749409
11.652632 -41.12413 -2.6565418
14.109002 -41.849781 -3.8471308
10.189146 -44.199791 -6.2625165
12.207651 -43.076157 -7.3237638
14.54774 -43.134609 -8.5966091
10.187727 -44.17395 -10.936097
12.178266 -42.914425 -11.934528
14.503374 -43.000866 -13.347849
10.168434 -44.049698 -15.792309
12.12686 -42.861202 -16.797518
14.493928 -42.985786 -18.433632
9.2133932 -41.095444 6.8770514
11.400354 -41.140858 5.8868289
13.569894 -41.106865 4.8837619
7.1301842 -41.132179 3.6391282
9.2378836 -41.149158 2.6127713
11.382923 -41.162544 1.5836999
13.580808 -41.142208 0.53242993
7.1325407 -41.121189 -0.52441025
9.2469978 -41.151196 -1.5728872
11.394661 -41.175278 -2.6552792
13.818624 -41.834656 -3.8378737
9.9715872 -44.50172 -6.2965088
11.942649 -43.148579 -7.3234806
14.205297 -42.988529 -8.549964
9.9558506 -44.411221 -10.979508
11.917611 -42.998775 -11.937426
14.204058 -42.982544 -13.314857
9.9535751 -44.359123 -15.881046
11.866159 -42.943924 -16.801086
14.16142 -42.866608 -18.344917
8.9565105 -41.130299 6.8735576
11.124411 -41.123932 5.8745289
13.301871 -41.1413 4.8780637
6.8741722 -41.154232 3.637279
8.9730806 -41.149361 2.6092393
11.088055 -41.07571 1.5777117
13.296262 -41.126259 0.53115773
6.8744669 -41.130535 -0.52398169
8.9828024 -41.15435 -1.5708715
11.12606 -41.186153 -2.6515279
13.523273 -41.799973 -3.8270073
9.7679615 -44.881958 -6.3417082
11.679104 -43.22636 -7.3243809
13.895387 -42.933144 -8.5218306
9.7538729 -44.796227 -11.059687
11.655256 -43.0774 -11.939175
13.886186 -42.902462 -13.263405
9.728056 -44.634304 -15.957893
11.604898 -43.025051 -16.804651
13.840581 -42.774841 -18.268957
8.69909 -41.161392 6.8697038
10.848911 -41.104431 5.862124
13.002351 -41.074184 4.8605552
6.6101146 -41.124653 3.6310115
8.7077036 -41.143543 2.6054332
10.828786 -41.116306 1.5766891
13.026586 -41.153114 0.53046227
6.6179132 -41.146751 -0.52366108
8.7121763 -41.124016 -1.5676436
10.83419 -41.105865 -2.6420295
13.246309 -41.818302 -3.821172
9.5724764 -45.320232 -6.3952155
11.417488 -43.311741 -7.3268404
13.595076 -42.902046 -8.4989395
9.5421543 -45.154922 -11.133579
11.396289 -43.169201 -11.945012
13.575128 -42.836807 -13.217107
9.5179119 -44.995285 -16.065769
11.343751 -43.107094 -16.809193
13.536556 -42.728588 -18.213387
8.428771 -41.128147 6.8553944
10.586204 -41.130241 5.8564305
12.739884 -41.120289 4.8566689
6.3503828 -41.117363 3.6268592
8.443141 -41.137997 2.6017523
10.567203 -41.146545 1.5753326
12.7276 -41.083046 0.52854246
6.3551679 -41.120918 -0.52282625
8.442131 -41.091282 -1.5643917
10.586251 -41.189026 -2.6431499
12.964946 -41.819698 -3.8139584
9.391202 -45.851643 -6.4619508
11.180769 -43.494781 -7.3460598
13.301126 -42.886475 -8.4795275
9.3608742 -45.680908 -11.248896
11.139253 -43.269604 -11.953656
13.26694 -42.773922 -13.17234
9.3412924 -45.538612 -16.238997
11.11115 -43.301029 -16.857914
13.24726 -42.724209 -18.176529
8.1754761 -41.175167 6.8547416
10.305933 -41.084003 5.8407326
12.47863 -41.168964 4.8532834
6.0942221 -41.130253 3.6246295
8.1810436 -41.141151 2.5987282
10.291719 -41.119465 1.5718485
12.451554 -41.082077 0.52753711
6.0992341 -41.135498 -0.52252591
8.1856375 -41.121204 -1.5635891
10.296029 -41.104332 -2.6336114
12.670072 -41.773083 -3.8025453
9.360527 -47.172527 -6.6398859
10.935038 -43.647823 -7.3604369
13.015639 -42.894485 -8.4651604
9.2395954 -46.539322 -11.446101
10.900571 -43.444859 -11.983368
12.979578 -42.773251 -13.14736
9.1937361 -46.259453 -16.47562
10.850013 -43.38744 -16.865318
12.960476 -42.724308 -18.142397
7.9028602 -41.121429 6.837594
10.051803 -41.138874 5.8396549
12.195994 -41.14426 4.8414574
5.8393064 -41.149742 3.6231213
7.9087615 -41.08828 2.5922742
10.034183 -41.161175 1.5710597
12.182247 -41.100361 0.52680212
5.8428011 -41.144581 -0.52217609
7.930171 -41.155102 -1.5629984
10.029689 -41.109619 -2.6299577
12.399548 -41.80294 -3.7982659
10.68398 -43.78363 -7.3721442
12.718118 -42.858692 -8.4425373
10.662391 -43.627941 -12.015595
12.721408 -42.86734 -13.15204
10.624364 -43.620613 -16.930296
12.677348 -42.733147 -18.112776
7.665 -41.166946 6.8325701
9.7842884 -41.108131 5.816843
11.914852 -41.105534 4.811903
5.5847173 -41.107338 3.6119006
7.6580777 -41.101292 2.6006942
9.7729406 -41.156128 1.5846772
11.900845 -41.105419 0.52736068
5.556159 -41.106728 -0.51430088
7.6645689 -41.127636 -1.5539614
9.7590427 -41.112206 -2.6388583
12.108603 -41.801193 -3.8052456
10.451946 -43.930088 -7.3758774
12.457546 -42.945465 -8.4395351
10.426229 -43.862988 -12.050877
12.407186 -42.82214 -13.123033
10.37006 -43.784195 -16.977846
12.423772 -42.801258 -18.086687
7.3972425 -41.129684 6.8187232
9.5228224 -41.128326 5.8113222
11.643768 -41.112057 4.8042126
5.3301191 -41.123379 3.6103683
7.4055839 -41.146641 2.6006393
9.500247 -41.128822 1.5813518
11.63042 -41.114105 0.5265466
5.3071575 -41.165878 -0.51462376
7.3992486 -41.102646 -1.5512724
9.4989662 -41.13826 -2.6367397
11.832632 -41.806667 -3.7990637
10.220532 -44.159019 -7.403646
12.167409 -42.927971 -8.4212675
10.196044 -44.095451 -12.097328
12.144179 -42.897388 -13.12301
10.139203 -44.011925 -17.041706
12.148152 -42.831676 -18.067701
7.1344714 -41.11515 6.808928
9.2616835 -41.14777 5.8059311
11.379216 -41.13908 4.7991204
5.0862217 -41.224464 3.6164348
7.1421022 -41.128708 2.5966873
9.2253838 -41.086922 1.5775344
11.347893 -41.07597 0.52515656
5.0685797 -41.312645 -0.51605999
7.1419539 -41.118752 -1.5501972
9.2305346 -41.125229 -2.6322248
11.565453 -41.840736 -3.7956388
9.9997177 -44.444611 -7.4411001
11.913538 -43.037056 -8.4281683
9.9686909 -44.350285 -12.15023
11.880116 -42.968849 -13.122324
9.9226475 -44.313072 -17.134413
11.879542 -42.885296 -18.059231
6.8798785 -41.145111 6.8067708
8.9898205 -41.115967 5.793551
11.109985 -41.146679 4.7919645
4.8704538 -41.573044 3.6443241
6.8763032 -41.092258 2.5916734
8.9662037 -41.111088 1.5763203
11.083678 -41.100468 0.52459037
4.84583 -41.607731 -0.51936495
6.8831811 -41.123932 -1.5487711
8.9733076 -41.159454 -2.6308415
11.288887 -41.838188 -3.7890527
9.7946014 -44.815258 -7.4929528
11.659806 -43.148438 -8.4358101
9.7631721 -44.716557 -12.233932
11.627811 -43.083813 -13.135396
9.7046375 -44.621769 -17.230427
11.622904 -42.982254 -18.069689
6.6200395 -41.14151 6.7993269
8.7207279 -41.091946 5.7825179
10.821089 -41.076599 4.7759805
4.6464972 -41.883587 3.668978
6.6232433 -41.128757 2.5913634
8.6961222 -41.081909 1.5731258
10.808418 -41.080807 0.5234831
4.6232624 -41.93441 -0.51649237
6.6273122 -41.144249 -1.5501238
8.7025118 -41.128311 -2.6186795
11.008688 -41.818268 -3.7874796
9.5671215 -45.099312 -7.5304875
11.408247 -43.270054 -8.4457426
9.5524721 -45.076969 -12.314141
11.372115 -43.188084 -13.140364
9.5099487 -45.056126 -17.375292
11.378513 -43.126907 -18.100809
6.3500695 -41.06879 6.7807417
8.4612837 -41.109951 5.7776365
10.559419 -41.105518 4.7717195
4.4203095 -42.206291 3.6948011
6.363863 -41.124043 2.5885572
8.4396191 -41.113716 1.5723314
10.545863 -41.106243 0.52297282
4.3993988 -42.284248 -0.52045888
6.3632255 -41.109806 -1.5473261
8.4309559 -41.088173 -2.612781
10.717957 -41.75285 -3.7755272
9.4075966 -45.727715 -7.6256342
11.156775 -43.394638 -8.4565372
11.12843 -43.340881 -13.165831
9.3178759 -45.526821 -17.534431
11.117236 -43.209751 -18.106606
6.1042109 -41.149151 6.7876968
8.1935263 -41.084114 5.7668309
10.306726 -41.168446 4.7715936
4.1931548 -42.556396 3.7231276
6.0989165 -41.078171 2.5832655
8.1796417 -41.12677 1.5708815
10.275121 -41.096909 0.5220421
4.162931 -42.546204 -0.53003287
6.1073556 -41.124477 -1.5442955
8.1789036 -41.140236 -2.619545
10.454909 -41.791229 -3.7667305
9.3025761 -46.66613 -7.7724609
10.917206 -43.569664 -8.4774323
9.2462225 -46.434387 -12.655196
10.865438 -43.420925 -13.174957
9.174387 -46.269203 -17.798338
10.881595 -43.395588 -18.156158
5.8508568 -41.180496 6.7868185
7.9370685 -41.111782 5.7637701
10.022105 -41.10041 4.7564902
3.9721177 -43.016277 3.7611578
5.8456278 -41.106926 2.5827696
7.9154382 -41.115417 1.5685632
10.009615 -41.105202 0.52135742
3.9409192 -42.997829 -0.53534782
5.8571343 -41.176857 -1.5448837
7.9137383 -41.124279 -2.6153877
10.189525 -41.818638 -3.7634947
10.676304 -43.744995 -8.498641
10.639318 -43.653 -13.225316
10.635743 -43.545982 -18.191435
5.6358781 -41.494007 6.8326588
7.6834011 -41.152962 5.762825
9.7641153 -41.137486 4.753758
3.7382903 -43.390266 3.7917809
5.5940428 -41.14756 2.5831175
7.6499333 -41.092972 1.5658866
9.7561255 -41.16127 0.52129948
3.7119241 -43.429642 -0.54043037
5.5956769 -41.148075 -1.5424867
7.6530242 -41.127831 -2.6125782
9.9180241 -41.818333 -3.7579193
10.42096 -43.865547 -8.5094786
10.406242 -43.864883 -13.269916
10.397828 -43.734394 -18.243147
5.4337835 -41.933846 6.8994656
7.4077435 -41.071793 5.7449861
9.5032167 -41.160671 4.7496095
3.4991488 -43.752079 3.8214507
5.3386927 -41.159775 2.5817792
7.4033799 -41.171021 1.5671003
9.4853811 -41.142292 0.52031225
3.4649198 -43.69804 -0.54349548
5.3370934 -41.135414 -1.5407555
7.3972626 -41.155872 -2.6114271
9.6444073 -41.80542 -3.7513704
10.206731 -44.167164 -8.5556784
10.175802 -44.096512 -13.320847
10.160785 -43.933582 -18.299885
5.224143 -42.353634 6.963129
7.1606717 -41.145664 5.7490644
9.2353649 -41.15086 4.7418489
5.0812068 -41.152615 2.5793259
7.1292272 -41.092342 1.5624111
9.2175913 -41.132038 0.51945746
3.2971323 -45.09161 -0.56056589
5.1205101 -41.458214 -1.55164
7.1346231 -41.142956 -2.6077805
9.3691902 -41.781189 -3.7439671
9.9785023 -44.420238 -8.59268
9.9557247 -44.384083 -13.389011
9.952816 -44.269962 -18.414215
5.0192595 -42.855278 7.0404058
6.895227 -41.112247 5.7383757
8.964839 -41.124825 4.7324209
2.9487662 -43.59631 3.8043978
4.85958 -41.447224 2.5958731
6.868679 -41.085808 1.5605308
8.9427662 -41.08551 0.51816714
2.9048972 -43.386013 -0.53913069
4.9075494 -41.842854 -1.5648793
6.8732905 -41.133595 -2.604465
9.1087608 -41.820042 -3.7423697
9.7696209 -44.773315 -8.6492205
9.7283621 -44.651615 -13.451455
9.7399988 -44.600391 -18.526451
6.6372757 -41.119297 5.7335672
8.6961622 -41.102631 4.7236381
2.6768081 -43.542011 3.7981548
4.6260076 -41.66386 2.6076145
6.6148243 -41.117073 1.5601473
8.6942081 -41.157135 0.51838785
2.6379776 -43.392284 -0.53899729
4.6914377 -42.238831 -1.5785822
6.6165147 -41.148537 -2.6027915
8.8347387 -41.793564 -3.7350788
9.5692863 -45.184547 -8.7171535
9.5334749 -45.085365 -13.564246
9.5231848 -44.928387 -18.638071
4.6015282 -43.950424 7.2104988
6.3793383 -41.123741 5.7286205
8.4371662 -41.122894 4.7199287
2.4008679 -43.399982 3.7844093
4.404274 -42.015808 2.6279008
6.3546753 -41.106853 1.5582504
8.4266682 -41.13726 0.51747656
2.3637977 -43.263439 -0.53720659
4.4678149 -42.606686 -1.5912756
6.3618822 -41.175251 -2.601963
8.5571508 -41.744629 -3.7259431
9.393404 -45.736843 -8.8124189
9.3592911 -45.64352 -13.714636
9.3352528 -45.413704 -18.815283
6.1203408 -41.11813 5.7224998
8.1639986 -41.069851 4.7080016
2.1272173 -43.265266 3.7714536
4.1703739 -42.285259 2.6431038
6.1037421 -41.154606 1.5586116
8.1612921 -41.123672 0.516666
2.0939925 -43.188438 -0.53610557
4.2456164 -43.031796 -1.6061491
6.1010036 -41.158794 -2.5985086
8.3029814 -41.807091 -3.7269003
9.2721214 -46.59531 -8.9666948
1.8468271 -37.912395 -12.212207
9.1816101 -46.09866 -19.075365
1.5757035 -36.979965 15.017751
1.6908538 -39.563538 11.659802
5.8622074 -41.114788 5.7169213
7.9109054 -41.114285 4.7074423
1.8523933 -43.061028 3.7525883
3.9384439 -42.608723 2.6617615
5.8477707 -41.167801 1.557723
7.8969035 -41.111004 0.51588833
1.8235486 -43.072819 -0.5345214
4.0161004 -43.431183 -1.6201059
5.8360896 -41.109146 -2.5930643
8.0300875 -41.772907 -3.7193906
1.8176892 -42.782837 -4.8190937
1.6858962 -39.879692 -8.575243
1.5966897 -37.512436 -12.07999
1.3356376 -36.62883 14.881784
1.4366753 -39.261806 11.559673
1.5216333 -41.626057 7.8436251
5.607347 -41.131836 5.7137418
7.6535373 -41.135468 4.7123313
1.5841138 -42.962387 3.7428513
3.7015052 -42.917057 2.6656775
5.581049 -41.099735 1.5521621
7.63905 -41.129333 0.50947863
1.5778693 -43.001293 -0.54068285
3.8158271 -44.236774 -1.6591532
5.5848441 -41.201057 -2.5841162
7.7744627 -41.764977 -3.704072
1.5156575 -42.25795 -4.7718406
1.4251345 -39.504932 -8.5000973
1.3835458 -37.317684 -12.003572
1.1045254 -36.427227 14.796844
1.1901624 -39.086647 11.505735
1.2573813 -41.344921 7.7890506
5.3854728 -41.400795 5.7464051
7.3987465 -41.16917 4.7109027
1.318349 -42.902073 3.7368217
3.4551148 -43.151455 2.6788692
5.3301826 -41.144146 1.5525749
7.3846064 -41.16465 0.50934517
1.311744 -42.936714 -0.53975952
3.5862355 -44.782734 -1.6787732
5.3718114 -41.54295 -2.6034429
7.5065684 -41.748035 -3.6984153
1.2360258 -41.583084 -4.6946888
1.1767592 -39.31414 -8.4573336
1.1483092 -37.123962 -11.938767
0.87703675 -36.269802 14.730433
0.94495851 -38.873142 11.440966
1.0005854 -41.224804 7.7651186
5.1770086 -41.801811 5.7975473
7.1311569 -41.128181 4.7027607
1.0539402 -42.862946 3.7500231
3.2801306 -44.387772 2.768652
5.0678606 -41.096889 1.5534636
7.109767 -41.081387 0.5283373
1.0474137 -42.909126 -0.53932178
3.3399377 -45.190216 -1.6932484
5.1569219 -41.90107 -2.6238534
7.2391195 -41.729057 -3.6927292
0.97532064 -41.355312 -4.66821
0.93189526 -39.16872 -8.4246607
0.91802728 -37.030624 -11.906715
0.65201551 -36.138329 14.675137
0.70537996 -38.82103 11.424139
0.74509871 -41.091385 7.7389803
4.9667301 -42.226479 5.852108
6.8690305 -41.113495 4.6961741
0.78958446 -42.796356 3.7437027
2.9095845 -42.958229 2.6783211
4.8432097 -41.363022 1.5623707
6.845027 -41.049034 0.52737111
0.78131932 -42.762135 -0.53740388
3.0132768 -44.481869 -1.6659831
4.944118 -42.311848 -2.6476271
6.976738 -41.735603 -3.6894507
0.7204327 -41.296467 -4.6609802
0.69010109 -39.092056 -8.4071026
0.68890691 -36.934399 -11.874193
0.42871678 -36.01186 14.622436
0.46692643 -38.804832 11.418314
0.49209902 -41.02367 7.7255135
4.7511353 -42.647491 5.9063044
6.6046429 -41.080296 4.687664
0.52697659 -42.800491 3.7437117
2.6433463 -42.933105 2.6756935
4.6154323 -41.62748 1.5712606
6.5948691 -41.101753 0.52751857
0.51927376 -42.79525 -0.53776985
2.732451 -44.372322 -1.661221
4.7247286 -42.705875 -2.6704185
6.7212653 -41.782253 -3.6898592
0.46632892 -41.238289 -4.6540036
0.44925833 -39.011787 -8.3890896
0.46156847 -36.882034 -11.856225
0.2078041 -36.024326 14.626705
0.22836959 -38.731422 11.396088
0.24016467 -40.990444 7.7188334
4.5428948 -43.184692 5.9767294
6.3528681 -41.122726 4.6879697
0.26429069 -42.7938 3.7429137
2.3787277 -42.928032 2.6744168
4.3880572 -41.923805 1.5813994
6.3399987 -41.124905 0.52730656
0.25709733 -42.867794 -0.53865147
2.4474254 -44.158928 -1.6526384
6.4597468 -41.790234 -3.6869941
0.21304618 -41.193043 -4.6486626
0.20987728 -39.013798 -8.3890867
0.23504478 -36.851177 -11.845618
-0.013251752 -36.052715 14.637989
1.886449 -38.261547 14.454263
-0.0093044853 -38.805294 11.417624
-0.011360667 -41.018135 7.7239161
4.3254566 -43.692825 6.0432677
6.0927844 -41.10939 4.6820993
0.0017091872 -42.846004 3.7474084
2.1097145 -42.828819 2.6673794
4.1539998 -42.186218 1.5903065
6.0880046 -41.166164 0.52734667
-0.0059349183 -42.831322 -0.53818351
2.1608417 -43.856739 -1.640802
4.2939963 -43.714405 -2.7299817
6.1951656 -41.774837 -3.6822131
-0.039763801 -41.250027 -4.6550331
-0.029566912 -39.093765 -8.4061632
1.9553598 -40.100853 -9.6852808
0.0089417771 -36.902409 -11.861844
1.8333696 -37.44371 -13.095672
-0.23517242 -36.160351 14.682001
1.627036 -37.702068 14.238866
-0.24768074 -38.847729 11.430342
1.7229038 -40.184433 10.760654
-0.26354799 -41.095924 7.7387233
4.1369309 -44.576805 6.1619058
5.8327966 -41.092251 4.675983
-0.26128718 -42.861191 3.7488062
1.8432715 -42.757225 2.6621656
3.9153976 -42.431198 1.5986056
5.8256426 -41.134567 0.526474
-0.26925078 -42.911308 -0.53919917
1.8788191 -43.57045 -1.6296291
4.1009092 -44.55722 -2.780992
5.9348192 -41.78458 -3.6797924
-0.29340866 -41.324989 -4.6636076
1.7723668 -41.688313 -5.7609186
-0.26953807 -39.106808 -8.4091635
-0.21765913 -36.930813 -11.871181
1.5829133 -36.971352 -12.926828
-0.45846033 -36.270252 14.727488
1.3845874 -37.411911 14.125808
-0.4870427 -38.925457 11.453876
1.4645082 -39.873104 10.674679
-0.51689893 -41.188786 7.7566609
1.5594869 -42.250443 6.8935003
5.5909557 -41.203964 4.6847034
-0.52565783 -42.971882 3.7586989
1.5766525 -42.653286 2.6550419
3.676827 -42.708241 1.6081631
5.5691733 -41.140274 0.5260998
-0.53310382 -42.95385 -0.53938109
1.6053843 -43.417389 -1.6235092
3.9331052 -45.812397 -2.844197
5.6817422 -41.845406 -3.6820207
-0.54867154 -41.451015 -4.6698627
1.5003946 -41.254528 -5.6996012
-0.51216406 -39.309769 -8.4386721
1.4197755 -38.933445 -9.3984098
-0.44474152 -36.968903 -11.881104
1.3497427 -36.80888 -12.866893
-0.68549865 -36.506203 14.824724
1.1481681 -37.198181 14.042184
-0.72900742 -39.08963 11.503284
1.2130266 -39.65913 10.615203
-0.77328944 -41.381229 7.7936482
1.2909685 -41.958752 6.8444872
5.3283887 -41.162994 4.67624
-0.79176247 -43.100853 3.7703338
1.3131011 -42.60358 2.6513965
3.4308271 -42.931747 1.6157562
5.3156056 -41.165688 0.52599788
-0.79898268 -43.075298 -0.54095751
1.3412635 -43.50148 -1.6263152
5.4653201 -42.191704 -3.7094712
-0.80704176 -41.655457 -4.6933646
1.2409911 -41.056465 -5.6710787
-0.7545709 -39.369308 -8.4522877
1.1750414 -38.749493 -9.352088
-0.67481011 -37.143784 -11.938413
1.1171316 -36.595997 -12.789842
-0.91485071 -36.71669 14.912199
0.9168759 -37.082134 13.995991
-0.97422928 -39.301678 11.567226
0.96494091 -39.472809 10.563549
-1.0330418 -41.611576 7.838078
1.0284368 -41.760715 6.8110251
5.1110821 -41.481945 4.7088227
-1.0596001 -43.233494 3.7824349
1.0492873 -42.514294 2.6453896
3.2442286 -43.994705 1.6549807
5.0639391 -41.205811 0.52610356
-1.0677948 -43.252728 -0.54364419
1.068802 -43.285522 -1.6179621
5.2392774 -42.491634 -3.7329326
-1.0817603 -42.399914 -4.7863517
0.9828161 -40.80452 -5.6353316
-1.0009278 -39.553814 -8.5078049
0.9324007 -38.555191 -9.3036366
-0.90836388 -37.371635 -12.016221
0.88903058 -36.457386 -12.739241
-1.1534699 -37.140121 15.086762
0.68706495 -36.965393 13.950075
-1.2274823 -39.686829 11.68258
0.72095913 -39.381725 10.53779
0.77005333 -41.651325 6.7922859
4.8948555 -41.840759 4.7460542
-1.3301537 -43.39901 3.7975581
0.7890985 -42.557388 2.6477199
2.8912163 -42.785454 1.6087939
4.8400664 -41.485165 0.52928114
-1.3362411 -43.345009 -0.54489684
0.79957449 -43.096596 -1.6106865
5.0280118 -42.94627 -3.7700918
-1.3570564 -42.871239 -4.8404064
0.73125815 -40.744762 -5.6263537
0.69473714 -38.500607 -9.2892609
-1.1437984 -37.567116 -12.081103
0.6648975 -36.439278 -12.731249
-1.3999912 -37.633812 15.290508
0.45878887 -36.852676 13.906213
0.47829697 -39.302731 10.51567
0.51332033 -41.562157 6.7771029
4.676805 -42.220024 4.7857294
-1.6040084 -43.596256 3.8156071
0.52677172 -42.465981 2.641782
2.6288581 -42.80603 1.6089307
4.609972 -41.736301 0.53211433
-1.6040213 -43.385887 -0.54552418
0.53441715 -43.043842 -1.6085622
0.48088142 -40.71825 -5.622179
0.45832652 -38.490574 -9.2859869
0.4405185 -36.378376 -12.708787
0.23233822 -36.804493 13.887232
0.23684385 -39.257458 10.50297
0.25792903 -41.506542 6.7676492
4.4586053 -42.639511 4.8300877
-1.8774065 -43.723728 3.8276997
0.26630032 -42.485268 2.6428306
2.3661408 -42.821095 1.6089209
4.3798933 -42.014153 0.53530401
-1.8792018 -43.584061 -0.54815066
0.27003545 -43.004284 -1.6069916
4.5866776 -43.827045 -3.8421807
0.23079295 -40.677937 -5.6163116
0.22189453 -38.44952 -9.2755795
0.21703845 -36.337261 -12.69372
0.0065177823 -36.85218 13.904948
1.9143409 -38.957184 13.621171
-0.0040394929 -39.293869 10.51252
0.0032535109 -41.564186 6.7769175
4.2421737 -43.126434 4.8822041
-2.15207 -43.84206 3.8391423
0.0056135654 -42.514069 2.6445701
2.0977268 -42.720291 1.6046196
4.1463537 -42.288456 0.53846461
-2.1490681 -43.621933 -0.54878247
0.0061743115 -43.102898 -1.6106449
4.3800859 -44.488289 -3.8977203
-0.01880751 -40.679192 -5.6163945
-0.01404603 -38.50082 -9.2878008
1.9322824 -39.254044 -10.497978
-0.005924983 -36.348961 -12.69758
1.7953149 -36.972469 -13.960462
-0.22053562 -37.007172 13.963677
1.650344 -38.388351 13.418489
-0.24572532 -39.386482 10.537502
1.7696946 -40.913689 9.8659172
-0.25187394 -41.578876 6.7794371
-0.2555224 -42.558887 2.6474056
1.8306792 -42.61861 1.6003485
3.9180887 -42.653744 0.54279953
-2.4221261 -43.706059 -0.55001742
-0.25858876 -43.150146 -1.6124395
1.8837874 -44.09935 -2.74333
4.1982694 -45.503258 -3.9843123
-0.26851583 -40.694244 -5.6185946
1.7608492 -41.084911 -6.7043509
-0.25036773 -38.513035 -9.2909441
1.6664377 -38.685966 -10.343123
-0.22959152 -36.449417 -12.732924
1.5475407 -36.490425 -13.7746
-0.45160109 -37.129902 14.011227
1.3962142 -38.085133 13.32402
-0.50441927 -39.538116 10.566626
1.4934213 -40.515587 9.7667723
-0.52692479 -41.760746 6.8175507
1.5961837 -42.937614 5.9189095
3.8138955 -44.402184 5.0142217
-2.7033777 -43.885643 3.8363678
-0.525222 -42.59911 2.6500711
1.559649 -42.561092 1.5955076
3.6867645 -42.930439 0.53099525
-2.6902072 -43.689571 -0.54961652
-0.52480274 -43.267605 -1.6169223
1.5793862 -43.186497 -2.6731308
-0.5208115 -40.896374 -5.6468444
1.4943469 -40.703362 -6.6404672
-0.48859733 -38.662868 -9.3276396
1.4176646 -38.38763 -10.270659
-0.4539471 -36.504406 -12.752877
1.3165174 -36.303654 -13.70079
-0.68105674 -37.215977 14.045021
1.1582133 -37.952469 13.274873
-0.74947691 -39.664986 10.601561
1.2358792 -40.233784 9.6968288
-0.78799379 -42.01474 6.8596768
1.3218348 -42.596539 5.8706641
3.6099646 -45.285156 5.1113358
-2.9796619 -43.972374 3.8454757
-0.78815812 -42.679672 2.6553338
1.2947659 -42.448456 1.5909575
3.4392359 -43.152412 0.53346968
-2.9646127 -43.766449 -0.55080205
-0.79374731 -43.453465 -1.6240193
1.3043549 -42.866287 -2.6527655
-0.77472281 -41.050575 -5.6686854
1.2377892 -40.489891 -6.6042781
-0.72814143 -38.783054 -9.3575363
1.1762236 -38.204742 -10.219604
-0.68131429 -36.683369 -12.816616
1.0872022 -36.093956 -13.618876
-0.91422904 -37.408798 14.119641
0.92180663 -37.814598 13.224421
-0.99878079 -39.89682 10.664963
0.98463368 -40.063347 9.6541147
-1.0523596 -42.273727 6.902885
1.0544034 -42.361252 5.8372355
-3.251195 -43.977325 3.8475809
-1.0531092 -42.799515 2.6631415
1.0328667 -42.397507 1.5887804
3.2524731 -44.234623 0.54659146
-3.2444568 -43.901058 -0.55312932
-1.0622196 -43.524033 -1.6268659
1.0358429 -42.648514 -2.6514409
-1.0329359 -41.298744 -5.7037168
0.98355424 -40.260551 -6.565762
-0.97054112 -38.956249 -9.4005833
0.93785638 -38.05201 -10.167288
-0.90998828 -36.824226 -12.867529
0.86295342 -35.984882 -13.575469
-1.1537294 -37.728878 14.242856
0.68893772 -37.774315 13.208607
0.73601502 -39.918114 9.6178474
-1.3311422 -42.892063 7.0050559
0.79254717 -42.264969 5.8231878
3.0507481 -45.278187 5.1059389
-3.5324366 -44.099712 3.8601124
-1.3179991 -42.866932 2.6677895
0.77184135 -42.355907 1.5870143
2.8891938 -42.890968 0.52975941
-3.5227768 -43.992821 -0.55454737
-1.336526 -43.754604 -1.6357602
0.77170366 -42.519749 -2.6430917
-1.299949 -41.72908 -5.764143
0.73379326 -40.117794 -6.5416241
-1.2212226 -39.325287 -9.4912653
0.70367557 -38.020317 -10.157476
-1.1449574 -37.110844 -12.969893
0.6405291 -35.899357 -13.541467
-1.4067031 -38.306412 14.463866
0.45611253 -37.692493 13.178768
0.49045798 -39.87233 9.6059103
0.53252172 -42.215385 5.8157969
2.7652624 -45.17181 5.0919337
-3.8167655 -44.237198 3.8741236
-1.5859799 -42.992989 2.6761899
0.51224285 -42.385311 1.5879682
2.6254003 -42.89867 0.52964556
-3.8087316 -44.156929 -0.55690014
-1.6233716 -44.247147 -1.654515
0.51046294 -42.496284 -2.6413887
0.48747477 -40.109547 -6.5396681
0.46971714 -37.970875 -10.143306
-1.3886355 -37.535366 -13.12099
0.4200075 -35.882576 -13.533909
0.22453879 -37.646343 13.161902
0.24535389 -39.802864 9.5886307
0.27256206 -42.075813 5.7962289
2.4559021 -44.604225 5.0261598
-4.0963097 -44.301426 3.8818767
-1.8527855 -43.052963 2.6805801
0.25211966 -42.380688 1.5877073
2.3579588 -42.838211 0.52871048
-4.0921793 -44.26878 -0.55861694
-1.9160659 -44.731953 -1.6730512
0.2491461 -42.404297 -2.6355262
0.24129136 -40.100822 -6.5378809
0.23641807 -37.924175 -10.130253
0.19956164 -35.836708 -13.515894
-0.0064677102 -37.693722 13.178233
0.0011253608 -39.893837 9.6103649
0.014416104 -42.171024 5.8092232
2.1502872 -43.966473 4.9527159
-4.3915381 -44.513416 3.90274
-2.1213672 -43.131321 2.686219
-0.0079251239 -42.388531 1.587973
2.0939918 -42.829956 0.52844012
-4.3793511 -44.401207 -0.56061655
-2.2031355 -44.977299 -1.6827016
-0.011058832 -42.449715 -2.6383038
-0.0047643324 -40.111855 -6.5395613
0.0037178965 -37.958511 -10.139228
1.895314 -38.505188 -11.339218
-0.020375978 -35.921165 -13.547539
1.7959208 -36.553627 -14.871608
-0.23799494 -37.731396 13.191668
1.6721355 -38.994576 12.536951
-0.24397258 -39.944382 9.6227198
1.7915249 -41.528126 8.9272079
-0.24463589 -42.221138 5.8162241
2.0392799 -47.692879 5.3709755
-4.688045 -44.709362 3.9223678
-2.3945944 -43.273224 2.6959209
-0.26842585 -42.45237 1.5903963
1.8272065 -42.749691 0.52730149
-4.6781621 -44.625828 -0.56380445
-2.4976251 -45.299461 -1.6952958
-0.27165303 -42.468719 -2.6395388
-0.25135311 -40.185646 -6.5517201
1.7463211 -40.557537 -7.6662307
-0.22938275 -37.989429 -10.147671
1.6397989 -38.069874 -11.207852
-0.24107985 -35.964447 -13.564165
1.5498735 -36.05854 -14.666039
-0.47105554 -37.853699 13.235187
1.4227177 -38.728634 12.448408
-0.4905124 -40.06052 9.6512413
1.5174048 -41.017342 8.815238
-0.50529158 -42.353001 5.8347058
1.5941244 -43.539898 4.9020905
-4.9950352 -44.974594 3.9482515
-2.654227 -43.162704 2.6899996
-0.53000313 -42.538517 1.5937155
1.5617636 -42.675236 0.52625501
-4.9774261 -44.826221 -0.56671149
-2.7671659 -45.146801 -1.6901863
-0.53435385 -42.635567 -2.6500628
1.5659947 -42.559025 -3.713263
-0.49924603 -40.29007 -6.5691209
1.4791988 -40.073547 -7.5728884
-0.46356964 -38.076984 -10.171628
1.3955631 -37.791855 -11.123272
-0.46294853 -36.055664 -13.599382
1.3213077 -35.869602 -14.58562
-0.70519102 -37.951393 13.27061
1.1780775 -38.508526 12.375103
-0.73932362 -40.220936 9.6907988
1.2576705 -40.765678 8.7593298
-0.76836061 -42.526474 5.8591442
1.3160892 -43.19281 4.8620114
-5.3104324 -45.28017 3.9778628
-2.9223475 -43.194801 2.6930668
-0.79178745 -42.576519 1.5952913
1.2960989 -42.559753 0.52472299
-5.2781949 -45.014992 -0.56949669
-3.0589654 -45.348904 -1.6984234
-0.80047554 -42.873802 -2.6651254
1.2940643 -42.216705 -3.6826339
-0.74989116 -40.472095 -6.5994253
1.2272598 -39.886093 -7.5358987
-0.69981903 -38.216583 -10.209873
1.159234 -37.656265 -11.081061
-0.68668908 -36.184685 -13.649379
1.0946903 -35.665257 -14.499524
-0.94303352 -38.148201 13.324566
0.93829209 -38.372765 12.329393
-0.99211752 -40.460991 9.7547636
1.0036644 -40.616894 8.7229252
-1.0372194 -42.848763 5.9033523
1.0448085 -42.94405 4.8331966
-5.6548615 -45.786797 4.0253425
-3.1936238 -43.261292 2.6983831
-1.0557611 -42.681763 1.5994473
1.0325245 -42.467876 0.52350229
-5.5964661 -45.323257 -0.57382029
-3.3603251 -45.643875 -1.7102106
-1.0711721 -43.176323 -2.684289
1.0299398 -42.017319 -3.6646206
-1.0033638 -40.675671 -6.6334996
0.9794398 -39.768639 -7.5124307
-0.93833667 -38.376701 -10.253996
0.92489195 -37.530174 -11.04208
-0.91468322 -36.41811 -13.739289
0.87149304 -35.494446 -14.427635
-1.1860577 -38.432297 13.426086
0.70158201 -38.309792 12.307545
-1.2532037 -40.872925 9.8557453
0.75204629 -40.493988 8.6953754
-1.3187395 -43.455288 5.9879169
0.7793678 -42.84407 4.8213158
-3.469177 -43.36797 2.7063138
-1.3193269 -42.729362 1.6015042
0.77157402 -42.454029 0.52326334
-5.9424787 -45.812443 -0.58046442
-3.6829064 -46.156082 -1.7302165
-1.3624414 -44.02076 -2.7372561
0.77062237 -41.941814 -3.6575544
-1.2669082 -41.12257 -6.7075224
0.73192734 -39.585556 -7.4768567
-1.1830889 -38.674038 -10.335187
0.69355589 -37.479099 -11.025592
-1.1451856 -36.637733 -13.824536
0.65279377 -35.450653 -14.407936
0.46502033 -38.191555 12.268411
0.50260764 -40.420856 8.681777
0.51563549 -42.779137 4.8135624
-3.7467623 -43.47995 2.7146854
-1.5849537 -42.814152 1.6050165
0.51179826 -42.518829 0.52401346
0.51218885 -41.858459 -3.6499426
0.48848101 -39.545639 -7.4686108
-1.4455436 -39.351433 -10.518386
0.4629631 -37.433193 -11.011045
-1.3880421 -37.113235 -14.006907
0.43451533 -35.393364 -14.383298
0.23081511 -38.217396 12.276027
0.25427738 -40.375164 8.6714659
0.25251603 -42.675655 4.8016534
-4.0274734 -43.607651 2.7241502
-1.8512802 -42.888248 1.6081897
0.25066465 -42.481743 0.52352762
0.25486079 -41.782284 -3.6430953
0.24573237 -39.533207 -7.465837
0.23301914 -37.395397 -10.999299
0.21720906 -35.374538 -14.374835
-0.0036937301 -38.283333 12.296982
0.0065443711 -40.436665 8.6845016
-0.0093510384 -42.715977 4.8061061
-4.3072004 -43.706223 2.7319076
-2.1169417 -42.927658 1.6101242
-0.0099986726 -42.481949 0.52352101
-0.0015129595 -41.835922 -3.6477039
0.0031620332 -39.611317 -7.4804435
0.0035715019 -37.467087 -11.020172
0.00015047209 -35.42334 -14.394396
-0.23877399 -38.311077 12.306133
-0.2419963 -40.507915 8.6999598
-0.27225024 -42.840736 4.8202405
-4.5899224 -43.818604 2.7406411
-2.3818884 -42.942463 1.6111975
-0.27120477 -42.566029 0.52456778
-0.25849596 -41.880798 -3.6516864
-0.24000844 -39.631058 -7.4843092
-0.22635509 -37.471725 -11.021737
-0.21749023 -35.469406 -14.413385
-0.47837231 -38.420319 12.35514
-0.50260431 -40.6115 8.7115183
-0.53232265 -42.940823 4.8283849
-4.863596 -43.909409 2.7628376
-2.6407318 -42.967159 1.6165287
-0.54187703 -42.632751 0.51928884
-0.52234352 -42.031136 -3.6723423
-0.48486742 -39.758221 -7.5044127
-0.46213871 -37.483707 -11.037747
-0.42747453 -35.558968 -14.434022
-0.71616131 -38.527199 12.390692
-0.75511235 -40.787491 8.7500992
-0.80031222 -43.180565 4.855803
-5.1587291 -44.099297 2.7767253
-2.9051194 -42.961906 1.6169715
-0.80395412 -42.654991 0.51960999
-0.7844131 -42.252327 -3.692019
-0.73192966 -39.924877 -7.5365748
-0.69570434 -37.673923 -11.094808
-0.64814144 -35.692726 -14.489658
-0.95843649 -38.760445 12.467362
-1.0130939 -41.095558 8.8173571
-1.0732971 -43.501041 4.8924899
-5.4508386 -44.242275 2.7877815
-3.1787298 -43.07954 1.6221025
-1.070367 -42.837402 0.52190226
-1.0485799 -42.446098 -3.7094436
-0.9803834 -40.062347 -7.563518
