# .PCD v0.7 - Point Cloud Data file format
VERSION 0.7
FIELDS x y z
SIZE 4 4 4
TYPE F F F
COUNT 1 1 1
WIDTH 1322
HEIGHT 1
VIEWPOINT 0 0 0 1 0 0 0
POINTS 1322
DATA ascii
36.264694 2.6694708 4.0906081
35.856068 0.87415934 1.3351837
35.389275 2.593262 0.43712595
30.171698 -0.74413091 -1.1212498
29.779486 0.72260201 -1.8558795
30.779865 2.2657287 -2.6986711
29.900833 -0.74642241 -4.1135712
31.077698 0.76366001 -5.0747609
35.631706 2.6291351 -6.7359304
36.511711 2.4750676 4.1167846
36.021027 0.6570577 1.341151
35.294758 2.3687024 0.43577078
33.993317 -2.7225401 -0.4196147
30.279213 -0.93271697 -1.1254369
29.728699 0.54262817 -1.8524777
30.552874 2.0647361 -2.6776347
31.225008 -2.5130949 -3.5216763
29.96291 -0.9247787 -4.1227894
30.859632 0.56886113 -5.0384874
35.612488 2.4129865 -6.7294393
36.228428 0.43849421 1.3487475
35.215561 2.1464207 0.43462217
35.71489 -3.0810823 -0.44109088
30.322523 -1.1203219 -1.127281
29.656702 0.35930023 -1.8478192
30.322557 1.86234 -2.6563983
31.65937 -2.7436702 -3.5724971
30.067526 -1.1127127 -4.1380458
30.784584 0.37854061 -5.0257602
35.544788 2.1893864 -6.7139816
36.351994 0.2169178 1.3532727
35.188656 1.9281421 0.43413594
36.208431 -3.3476064 -0.44743162
30.446024 -1.3119991 -1.1321502
29.646757 0.17725405 -1.847097
30.093653 1.6629997 -2.6354017
32.261425 -2.9953949 -3.6424394
30.19068 -1.3028162 -4.1560168
30.685965 0.18902461 -5.0093765
35.357922 1.9601792 -6.6762867
36.651394 -0.0061883833 1.3643941
35.150192 1.7097782 0.4335238
30.614885 -1.5075274 -1.135699
29.606546 -0.004651973 -1.8465235
29.940058 1.4703013 -2.6043766
30.335382 -1.4995949 -4.1764469
30.629511 0.0046821935 -4.98806
35.332867 1.7312272 -6.6768665
36.801018 -0.23202491 1.3699911
34.911522 1.4835087 0.43045977
30.776505 -1.7048455 -1.1420611
29.608778 -0.18633196 -1.8466992
29.798838 1.2801348 -2.5913601
35.326729 -3.717783 -4.0062151
30.510895 -1.6960007 -4.2019644
30.614761 -0.18317206 -4.9857473
35.314236 1.5131712 -6.6714654
34.63839 1.259033 0.42698872
31.00251 -1.908245 -1.1508605
29.618567 -0.36814731 -1.8474159
29.722769 1.0941995 -2.5841124
35.54348 -3.9612465 -4.0334764
30.642239 -0.37137088 -4.9904995
35.317585 1.2962652 -6.6704702
33.488689 1.0115316 0.41273206
31.228191 -2.1145506 -1.159698
29.674334 -0.55096418 -1.8510702
29.63431 0.90890163 -2.5758884
35.673138 -4.1974573 -4.0510368
30.693588 -0.56037074 -4.9993277
35.312748 1.0791657 -6.6681805
33.205566 0.79908222 0.40917459
31.603992 -2.3348894 -1.1741637
29.722647 -0.73432308 -1.8543301
29.627642 0.72676516 -2.5748727
36.27544 -4.4941583 -4.122488
31.503838 -2.3335638 -4.3438931
30.727264 -0.74961209 -5.0054679
35.331577 0.86278468 -6.6706109
32.972271 0.5910629 0.4062475
31.934355 -2.5564046 -1.186998
29.786875 -0.91882139 -1.858654
29.535473 0.54319286 -2.5665245
36.30479 -4.7241516 -4.1290398
32.024563 -2.5698061 -4.4177842
30.856466 -0.94224036 -5.0273623
35.224625 0.64393818 -6.6495471
32.806877 0.38675255 0.40417287
32.4552 -2.798619 -1.2069732
29.834372 -1.1035591 -1.8620052
29.477676 0.36121407 -2.5612614
36.28302 -4.9479022 -4.1299391
32.756405 -2.8309197 -4.5210524
31.016226 -1.1376475 -5.0544338
33.716843 0.40944207 -6.3643208
32.696148 0.18481018 0.40278709
33.225056 -3.0704975 -1.2362808
29.969414 -1.29274 -1.8708932
29.470308 0.18028042 -2.560477
36.29594 -5.1767073 -4.1349473
34.001144 -3.1487954 -4.6954308
31.181078 -1.3353218 -5.0825377
33.562843 0.2016153 -6.3348989
32.654461 -0.015792681 0.40226722
35.262764 -3.4771564 -1.3128717
30.075193 -1.4822366 -1.8780291
29.503546 -0.0005500089 -2.5633168
36.257515 -5.398427 -4.1342654
36.093605 -3.5660715 -4.987319
33.47781 -0.0043151891 -6.3187356
32.651222 -0.21613966 0.4022361
35.675114 -3.738982 -1.329053
30.234715 -1.6761255 -1.8885969
29.512007 -0.18163587 -2.5641005
36.320686 -5.6358457 -4.1453338
31.857134 -1.7561623 -5.195857
32.688801 -0.41698387 0.40272292
35.869846 -3.9820499 -1.3371929
30.433426 -1.8745189 -1.9016922
29.493452 -0.36250719 -2.5626335
36.306973 -5.8620787 -4.1477957
32.32132 -1.9807447 -5.2734475
33.491768 -0.41534415 -6.3218555
32.790455 -0.61953127 0.4040145
35.926361 -4.2116361 -1.3402376
30.650833 -2.0767682 -1.9160373
29.464489 -0.54298627 -2.560358
36.27853 -6.0861216 -4.148735
33.018192 -2.2268884 -5.3892765
33.626266 -0.62339032 -6.347846
32.874584 -0.82293463 0.40510571
36.43343 -4.4978709 -1.360158
29.53463 -0.7255854 -2.5667918
36.2929 -6.3177285 -4.1547332
33.022938 -1.0294352 0.40700397
36.411026 -4.7221003 -1.3603777
31.280355 -2.5053921 -1.9571646
29.577257 -0.9082557 -2.5709324
36.300446 -6.5487761 -4.1601186
36.688942 -2.9271455 -5.9938326
33.270458 -1.2415361 0.41014078
36.422863 -4.951066 -1.3619293
31.672012 -2.732444 -1.9826816
29.683661 -1.0938681 -2.5807159
36.291767 -6.7773991 -4.1638112
33.619698 -1.4611937 0.41454875
36.368 -5.1710758 -1.3610387
32.1833 -2.9756067 -2.0157936
29.76487 -1.2797875 -2.5884106
36.32489 -7.0145125 -4.1724715
36.365688 -5.3985968 -1.3748307
32.817093 -3.2374084 -2.0449355
29.895031 -1.4692074 -2.6211665
36.323364 -7.2456841 -4.1707864
35.552559 -1.9795173 0.44323298
36.366764 -5.627028 -1.3761506
30.070801 -1.6628617 -2.637423
35.965458 -2.2239509 0.4485423
36.34782 -5.852684 -1.3767669
35.292721 -3.919503 -2.2020309
30.245239 -1.8587232 -2.6536727
37.107349 -7.8767519 -4.2715845
36.520378 -2.4832962 0.45564446
36.363796 -6.0843964 -1.3787602
35.387722 -4.1500206 -2.2095058
30.455141 -2.0592723 -2.6731477
36.36879 -7.9534974 -4.1921048
36.364906 -6.3141999 -1.3802452
35.663586 -4.4043732 -2.2283752
30.723038 -2.2668436 -2.6978319
36.355576 -8.1846676 -4.1962914
36.308338 -6.5341277 -1.379594
35.665283 -4.6269307 -2.2302132
31.056351 -2.4831221 -2.7283869
36.36142 -8.4207306 -4.2028508
36.288853 -6.7607541 -1.3804039
35.615135 -4.8428144 -2.2288933
31.450573 -2.7089524 -2.7644289
36.378208 -8.660141 -4.2108541
36.265892 -6.9869914 -1.3811352
35.659214 -5.0718455 -2.2335579
31.92926 -2.9476593 -2.8080411
36.38586 -8.8982239 -4.2179804
36.296421 -7.2241282 -1.38396
35.669067 -5.2967343 -2.2361684
36.433407 -9.1471329 -4.229919
36.756065 -7.5503674 -1.4032261
35.680023 -5.522326 -2.2389374
36.443626 -9.3877783 -4.2377133
36.691803 -7.7721043 -1.4025669
35.652115 -5.7422218 -2.2393551
35.240147 -3.9087241 -3.1050217
36.462643 -9.6316366 -4.2467165
36.313835 -7.9251647 -1.3899516
35.662838 -5.9686742 -2.2422869
35.264664 -4.1306386 -3.1093566
36.452461 -9.8686123 -4.2525034
36.274422 -8.1500578 -1.390331
35.659294 -6.1932464 -2.244411
35.609333 -4.3926668 -3.1420643
36.483849 -10.117783 -4.2633271
36.284389 -8.3864994 -1.3926591
35.593758 -6.407095 -2.2427185
35.632515 -4.6176624 -3.1465504
36.494335 -10.362254 -4.2719026
36.288589 -8.622366 -1.3948249
35.638515 -6.6411657 -2.2480638
35.569035 -4.8315301 -3.1435037
36.500317 -10.606397 -4.2801399
36.259495 -8.8508444 -1.3957677
35.608139 -6.8618431 -2.2487614
35.614109 -5.0603986 -3.1501722
36.525093 -10.857074 -4.2907767
36.251614 -9.0849686 -1.3975838
35.629566 -7.0929818 -2.252821
35.636997 -5.2869282 -3.1550066
36.505608 -11.095517 -4.2964044
36.254234 -9.3224163 -1.3998638
35.588158 -7.3120399 -2.2529969
35.608875 -5.5062647 -3.1554487
36.606361 -11.371965 -4.3163939
36.172493 -9.5384026 -1.3989412
35.8517 -7.5957489 -2.272589
35.589947 -5.7271519 -3.156826
36.743237 -11.662174 -4.3408895
36.220898 -9.789257 -1.4031098
35.897915 -7.8359971 -2.2785234
35.553307 -5.9452815 -3.1567526
36.208885 -10.024813 -1.4050008
35.596508 -7.9993386 -2.2624652
35.60891 -6.1794162 -3.1649969
36.211449 -10.265153 -1.4075178
35.598999 -8.229682 -2.2657905
35.607601 -6.4044967 -3.1683135
36.167953 -10.493003 -1.4083034
35.608322 -8.4623346 -2.2696462
35.588997 -6.6268382 -3.1702163
36.180256 -10.737688 -1.4113212
35.574203 -8.685174 -2.2708254
35.63876 -6.8626242 -3.1783402
36.190891 -10.982912 -1.4143382
35.599869 -8.9232483 -2.2759159
35.602604 -7.0824871 -3.1789315
36.19471 -11.227068 -1.417153
35.635384 -9.1649055 -2.2817385
35.587532 -7.3067737 -3.1815293
36.175156 -11.464794 -1.4191151
35.589455 -9.386282 -2.2824426
35.832497 -7.5864959 -3.2075307
36.173958 -11.709149 -1.4218599
35.559883 -9.6122341 -2.2842858
35.875587 -7.8259182 -3.2156258
36.125523 -11.938848 -1.4228086
35.592587 -9.8558178 -2.2902281
35.593098 -7.9933939 -3.1946414
36.182743 -12.204528 -1.427985
35.58358 -10.088805 -2.2935889
35.567299 -8.217165 -3.1967912
36.11837 -12.430162 -1.4284276
35.604519 -10.331184 -2.2989812
35.642212 -8.4651728 -3.2081327
36.134548 -12.684236 -1.4321184
35.59185 -10.564711 -2.3023057
35.586281 -8.6828995 -3.2078331
36.124821 -12.930335 -1.4216334
35.559704 -10.79302 -2.3177207
35.609692 -8.9204683 -3.1894262
36.100288 -13.171993 -1.4238216
35.567436 -11.03416 -2.3225939
35.559872 -9.140233 -3.1899276
37.157749 -15.934954 -0.50459731
36.017601 -13.392812 -1.4237747
35.58136 -11.278275 -2.3279781
35.583992 -9.37957 -3.1971941
36.974373 -16.125622 -0.50344127
36.014717 -13.643856 -1.4269433
35.596939 -11.52405 -2.33358
35.623112 -9.6240301 -3.2059538
36.803089 -16.320419 -0.50246316
36.05312 -13.911966 -1.4318202
35.60603 -11.768849 -2.3388658
35.550892 -9.8389702 -3.2048273
36.615437 -16.506792 -0.50127459
36.017891 -14.152888 -1.4338429
35.565315 -11.997954 -2.3409834
35.598595 -10.087735 -3.2146473
36.489307 -16.720079 -0.50094295
35.986145 -14.395934 -1.4360687
35.573643 -12.244389 -2.3464324
35.623547 -10.331357 -3.2225645
36.422039 -16.960428 -0.50143874
35.990429 -14.654458 -1.4398009
35.538837 -12.476828 -2.3491423
35.639709 -10.573545 -3.229835
36.339432 -17.194069 -0.50174451
35.983543 -14.909699 -1.443158
35.548702 -12.725831 -2.3549116
35.622272 -10.806623 -3.2342031
36.269089 -17.433947 -0.50224078
35.865055 -15.119113 -1.4420996
35.521259 -12.962438 -2.3583181
35.626507 -11.047076 -3.2406809
36.236805 -17.692965 -0.50328767
35.909237 -15.397904 -1.4476477
35.507793 -13.204967 -2.3627591
35.591679 -11.27612 -3.2437453
36.159485 -17.930807 -0.50373238
35.876499 -15.645169 -1.4501708
35.501305 -13.451084 -2.367775
35.570332 -11.509993 -3.2481751
36.181316 -18.219076 -0.5055843
35.823624 -15.884429 -1.4519459
35.516098 -13.706482 -2.374326
35.646481 -11.776743 -3.2616668
36.124767 -18.469328 -0.50636822
35.804974 -16.139771 -1.4551764
35.513325 -13.956371 -2.3798211
35.608273 -12.006953 -3.2648504
36.137218 -18.756273 -0.50814641
35.776653 -16.391869 -1.4580859
35.498383 -14.202565 -2.3846145
35.621693 -12.25541 -3.2729137
36.151093 -19.045956 -0.50997525
35.76194 -16.651375 -1.4616227
35.500763 -14.456841 -2.3906887
35.608479 -12.495736 -3.2786827
36.111553 -19.309124 -0.50363314
35.763142 -16.91972 -1.4795161
35.495964 -14.709444 -2.3826942
35.617817 -12.745008 -3.3128464
36.102367 -19.590012 -0.50517201
35.717907 -17.167318 -1.4819747
35.482441 -14.959598 -2.3879035
35.589046 -12.98159 -3.317517
36.156231 -19.907379 -0.5076254
35.701351 -17.429829 -1.4856972
35.471348 -15.211926 -2.3933933
35.605091 -13.235539 -3.3265204
36.136074 -20.186207 -0.50907183
35.630951 -17.667015 -1.4872508
35.42625 -15.450621 -2.3967023
35.575039 -13.473389 -3.3313742
36.08744 -20.450569 -0.51014489
35.653538 -17.951601 -1.4927632
35.436447 -15.714558 -2.4038701
35.60622 -13.735597 -3.3421233
36.060253 -20.728506 -0.51154894
35.647728 -18.223711 -1.4971735
35.395775 -15.957131 -2.4077079
35.611652 -13.98932 -3.3506272
36.087505 -21.039816 -0.51375723
35.620781 -18.486494 -1.5007777
35.35677 -16.201313 -2.4117713
35.575325 -14.227633 -3.3553598
36.050533 -21.315722 -0.51508319
35.586784 -18.746908 -1.5041634
35.38353 -16.477016 -2.4204481
35.570515 -14.479503 -3.3632231
36.042679 -21.610641 -0.51685584
35.586823 -19.026793 -1.5090712
35.399555 -16.74955 -2.4285285
35.541496 -14.722546 -3.368957
36.046997 -21.915041 -0.51883644
35.559189 -19.293505 -1.5128912
35.356014 -16.995234 -2.4326501
35.606617 -15.006145 -3.3837943
35.989048 -22.18339 -0.51995164
35.568245 -19.581856 -1.51836
35.326206 -17.248543 -2.4378355
35.581379 -15.253281 -3.3902264
35.954536 -22.467714 -0.52143502
35.522209 -19.841503 -1.5215633
35.405632 -17.557171 -2.4507046
35.573402 -15.508933 -3.3984694
35.956432 -22.776859 -0.52347952
35.492802 -20.111794 -1.525561
35.417252 -17.83452 -2.4590373
35.613388 -15.787123 -3.4114795
36.003002 -23.117126 -0.52621269
35.482658 -20.39468 -1.5304751
35.385227 -18.091417 -2.4644747
35.603653 -16.044912 -3.4199135
36.050068 -23.460985 -0.52899468
35.451141 -20.666981 -1.5345565
35.440384 -18.394787 -2.476131
35.642056 -16.326067 -3.4331605
36.04327 -23.772654 -0.53102547
35.411751 -20.936193 -1.5383832
35.456673 -18.680298 -2.4852307
35.647755 -16.594051 -3.4434526
36.072857 -24.11109 -0.53363097
35.351353 -21.19429 -1.5413802
35.427578 -18.943592 -2.4912918
35.642155 -16.858297 -3.4528387
36.08786 -24.442801 -0.53606153
35.374874 -21.504559 -1.5481299
35.42247 -19.221279 -2.4991791
35.691628 -17.150476 -3.4677606
36.051342 -24.742107 -0.53776413
35.378792 -21.805363 -1.5541276
35.394302 -19.48806 -2.5055814
35.700546 -17.425198 -3.4789498
36.107159 -25.1077 -0.54088461
35.367332 -22.09889 -1.5595515
35.481525 -19.820763 -2.520318
35.681309 -17.687721 -3.4875858
37.207348 -18.751165 0.52031583
36.101639 -25.433899 -0.54312944
35.359344 -22.396732 -1.5652297
35.473209 -20.10269 -2.5284417
35.74231 -17.992001 -3.5042727
37.105511 -18.986233 0.52051103
36.092308 -25.760145 -0.54535675
35.367886 -22.707411 -1.5717458
35.479225 -20.394714 -2.5377421
35.746407 -18.269836 -3.5155995
37.000008 -19.219625 0.51362503
36.122192 -26.1175 -0.5482195
35.433712 -23.057936 -1.5809289
35.456432 -20.672089 -2.5451367
35.774189 -18.561756 -3.5294666
37.169785 -21.978308 1.6074841
36.881634 -19.446423 0.51362854
36.153133 -26.479185 -0.5511446
35.395256 -23.343304 -1.5855739
35.512218 -20.997635 -2.5583417
35.787903 -18.848476 -3.5421636
37.126251 -22.261139 1.6114783
36.78437 -19.684534 0.5210014
36.150345 -26.81949 -0.55360043
35.391537 -23.653732 -1.5918791
35.506447 -21.289326 -2.5672884
35.810333 -19.141882 -3.5559418
37.091877 -22.551094 1.615962
36.734657 -19.948837 0.52202111
36.149414 -27.16427 -0.55612826
35.366566 -23.952276 -1.5973363
35.476036 -21.568125 -2.57461
35.805737 -19.422831 -3.5672524
37.185963 -22.921982 1.626158
36.661839 -20.201567 0.5227381
36.174995 -27.532412 -0.55911022
35.401848 -24.294359 -1.6056324
35.529774 -21.900507 -2.5882137
35.837784 -19.725775 -3.5824368
37.178391 -23.23332 1.6320305
36.653751 -20.491301 0.5244056
36.1548 -27.869034 -0.56143051
35.443436 -24.64415 -1.6143466
35.464016 -22.1614 -2.5932806
35.818489 -20.002493 -3.5927093
37.188232 -23.557987 1.6387769
36.598534 -20.756203 0.52542788
36.221661 -28.276569 -0.56515235
35.437149 -24.963726 -1.6210065
35.539974 -22.513262 -2.6088872
35.893711 -20.334419 -3.6127012
36.576801 -21.041534 0.52695954
36.213028 -28.629173 -0.56774789
35.476551 -25.318605 -1.6298845
35.525612 -22.810816 -2.6180584
35.892117 -20.625448 -3.6252105
36.532787 -21.31562 0.52819979
36.260422 -29.029961 -0.57127291
35.402809 -25.595299 -1.6336814
35.520638 -23.116655 -2.6280956
35.940987 -20.947931 -3.6430604
36.486813 -21.589977 0.52944052
36.22316 -29.366652 -0.57351393
35.465801 -25.973679 -1.6439117
35.560558 -23.454494 -2.6416476
35.9361 -21.24155 -3.6557076
36.499805 -21.901144 0.52437097
36.248573 -29.75771 -0.58714998
35.494171 -26.33057 -1.6508585
35.570541 -23.77556 -2.676945
35.919895 -21.530466 -3.6375034
36.491112 -22.201576 0.52619326
36.209164 -30.099155 -0.58949208
35.480236 -26.659292 -1.6577876
35.527897 -24.063747 -2.684797
35.930573 -21.837654 -3.6520855
36.507587 -22.519684 0.52841341
36.281784 -30.537903 -0.5937137
35.518215 -27.030388 -1.6672801
35.547527 -24.396555 -2.6975424
35.953739 -22.15497 -3.6681888
36.516464 -22.835657 0.53056008
36.289997 -30.927219 -0.59694225
35.508072 -27.368349 -1.6746556
35.544926 -24.716963 -2.7088029
35.978176 -22.475769 -3.6846828
36.511745 -23.145555 0.53254497
36.286129 -31.310307 -0.60002762
35.48877 -27.70225 -1.6817304
35.573235 -25.061863 -2.7226284
36.01527 -22.807358 -3.7027445
36.529015 -23.471943 0.53488743
36.275726 -31.69171 -0.60305977
35.499474 -28.062841 -1.6903656
35.629345 -25.429943 -2.7388139
35.999477 -23.108042 -3.7156289
36.519371 -23.783602 0.53687298
36.308426 -32.115227 -0.60686797
35.525043 -28.43898 -1.6998603
35.575268 -25.722286 -2.7467377
36.079208 -23.473055 -3.7386534
36.520267 -24.104597 0.5390504
36.326405 -32.530582 -0.61049324
35.517975 -28.792694 -1.7079436
35.606571 -26.079103 -2.7614574
36.045135 -23.766941 -3.7501638
36.590782 -24.474783 0.54229766
36.334541 -32.941826 -0.61401546
35.523239 -29.159981 -1.7167686
35.638512 -26.440004 -2.7764647
36.077335 -24.107077 -3.7688327
36.587547 -24.798901 0.54449469
36.387627 -33.399029 -0.61836404
35.545975 -29.545565 -1.7265961
35.602142 -26.753262 -2.7863677
36.131725 -24.465439 -3.7901261
36.6022 -25.137974 0.54699796
36.356094 -33.783436 -0.6213392
35.541271 -29.912298 -1.7352504
35.655449 -27.137226 -2.803519
36.148354 -24.801548 -3.8077621
36.548538 -25.432554 0.54851782
36.406086 -34.248558 -0.62577337
35.560062 -30.302799 -1.745213
35.650185 -27.480309 -2.8163104
36.128868 -25.115601 -3.8218708
36.610542 -25.810551 0.55181485
36.395405 -34.661911 -0.62923372
35.566868 -30.687296 -1.7547554
35.713013 -27.879742 -2.8347349
36.204983 -25.499437 -3.8464019
36.612202 -26.149494 0.55424786
36.360287 -35.056438 -0.63233364
35.558083 -31.062347 -1.763692
35.670971 -28.200882 -2.8450792
36.207645 -25.835131 -3.8634534
36.621181 -26.496737 0.55683458
36.416012 -35.543888 -0.63708359
35.588791 -31.476267 -1.7747617
35.704006 -28.584745 -2.8616495
36.202625 -26.168259 -3.8799777
36.663383 -26.871536 0.55997282
36.399467 -35.966496 -0.640643
35.608044 -31.884823 -1.7854446
35.660927 -28.911095 -2.8723609
36.259899 -26.549904 -3.9035025
36.637325 -27.199568 0.56211334
36.460285 -36.471436 -0.64363229
35.603058 -32.276154 -1.7805227
35.727829 -29.330467 -2.882998
36.251469 -26.886971 -3.9213164
36.677837 -27.580339 0.56532079
36.474377 -36.93605 -0.64786971
35.607307 -32.680286 -1.7907299
35.710903 -29.685225 -2.8962758
36.295464 -27.266397 -3.9440987
36.719452 -27.965977 0.5685963
36.478767 -37.396702 -0.65201128
35.633926 -33.109829 -1.8022521
35.709591 -30.056559 -2.9110725
36.338905 -27.649458 -3.9671807
36.661961 -28.279308 0.5703823
36.451385 -37.830261 -0.65565848
35.624855 -33.511055 -1.8121589
35.782829 -30.495266 -2.9322417
36.307472 -27.978951 -3.9824166
36.716366 -28.682316 0.57395601
36.497486 -38.346249 -0.66070747
35.614983 -33.916058 -1.8222085
35.769054 -30.864403 -2.9465768
36.327549 -28.351385 -4.0036249
36.772839 -29.091516 0.57761836
36.479141 -38.800961 -0.66467297
35.635521 -34.355026 -1.8340104
35.719597 -31.206127 -2.9582205
36.411102 -28.777822 -4.032218
36.761272 -29.450897 0.58026433
36.484436 -39.286858 -0.66914904
35.649776 -34.793339 -1.8456968
35.755131 -31.626104 -2.9771788
36.373291 -29.11231 -4.0477366
36.799812 -29.854338 0.58375329
36.522423 -39.814938 -0.67431378
35.638859 -35.212231 -1.8562828
35.7295 -31.996321 -2.9913354
36.442936 -29.536726 -4.0755792
36.794174 -30.225994 0.58659482
36.489525 -40.272366 -0.67825609
35.632759 -35.640923 -1.8673208
35.791515 -32.449783 -3.0131409
36.480831 -29.940182 -4.1002851
36.787807 -30.600735 0.58947563
36.552402 -40.842636 -0.68407023
35.653778 -36.102295 -1.8799956
35.809139 -32.868336 -3.0315464
36.449696 -30.290827 -4.1175985
36.880127 -31.06237 0.59399784
36.517063 -41.310448 -0.68813974
35.682281 -36.577362 -1.8932973
35.799198 -33.266235 -3.0479279
36.514675 -30.725557 -4.1461592
36.808838 -31.36672 0.58959019
36.551193 -41.871765 -0.68819463
35.720245 -37.043495 -1.9182767
35.836468 -33.718891 -3.0545971
36.498981 -31.113787 -4.183095
36.848579 -31.792927 0.59334034
36.599667 -42.450264 -0.69399852
35.681343 -37.460464 -1.928495
35.839512 -34.138763 -3.0726535
36.586372 -31.577944 -4.2152376
36.874329 -32.211933 0.59692633
36.567513 -42.942963 -0.69837201
35.693371 -37.936489 -1.9416895
35.830837 -34.552307 -3.0900285
36.778103 -32.139313 -4.2599683
36.905613 -32.640678 0.60066366
36.605686 -43.526043 -0.70418847
35.737774 -38.453754 -1.9569041
35.880383 -35.027508 -3.1127777
36.846264 -32.59977 -4.2909522
36.941921 -33.078987 0.60454679
36.640671 -44.114334 -0.71005535
35.703949 -38.893227 -1.9680825
35.875881 -35.455631 -3.1312025
36.972229 -33.117867 -4.329205
36.925613 -33.474876 0.60762978
36.647984 -44.678074 -0.71549624
35.749737 -39.425987 -1.9839042
35.868233 -35.885777 -3.149694
37.022865 -33.979225 0.6126495
36.63335 -45.223305 -0.72061455
35.728859 -39.892143 -1.9962916
35.900864 -36.361935 -3.172092
36.954754 -34.336845 0.61499739
36.667877 -45.838139 -0.72681278
35.765881 -40.429924 -2.0121832
35.95631 -36.867847 -3.1969192
37.009827 -34.813587 0.61945719
36.687794 -46.444408 -0.7328425
35.745663 -40.910172 -2.0251305
35.933441 -37.299557 -3.2151744
36.986874 -35.222244 0.62267864
36.688393 -47.035641 -0.73860556
35.784855 -41.46579 -2.0417271
35.950077 -37.778038 -3.2373431
37.060913 -35.728931 0.62760413
36.72057 -47.677269 -0.74512887
35.795536 -41.99641 -2.0570004
35.983807 -38.28112 -3.2614717
37.068382 -36.177593 0.63147789
36.723701 -48.291401 -0.75119108
35.777443 -42.500671 -2.0709078
35.996651 -38.76873 -3.2841349
37.116695 -36.672108 0.63612235
36.736004 -48.927788 -0.75756961
35.842945 -43.112671 -2.0899725
36.022446 -39.277103 -3.3084142
37.069206 -37.077419 0.63919544
36.760609 -49.591396 -0.76433772
35.788605 -43.588612 -2.1023595
36.038475 -39.781876 -3.3322425
37.105202 -37.571693 0.64377934
36.746372 -50.213314 -0.77043349
35.827847 -44.186462 -2.1205518
36.054016 -40.293182 -3.356477
37.160378 -38.092251 0.64877969
36.785744 -50.919788 -0.77779514
35.810684 -44.72348 -2.1357384
36.043827 -40.782616 -3.3787613
37.151379 -38.590858 0.66517287
36.840942 -51.661034 -0.78564984
35.850071 -45.340088 -2.1546388
36.033817 -41.278984 -3.4015021
36.863441 -52.369385 -0.79296744
35.888515 -45.96563 -2.1738596
36.128448 -41.903622 -3.4346418
36.837448 -53.020672 -0.79939157
35.888817 -46.552086 -2.1911392
36.098522 -42.392117 -3.456461
36.869087 -53.767296 -0.80722231
35.919064 -47.187283 -2.2106216
36.121914 -42.950718 -3.4838696
36.871223 -54.484192 -0.81457329
35.907516 -47.777569 -2.2279112
36.098557 -43.46154 -3.5072713
36.903278 -55.259041 -0.82275689
35.948875 -48.448738 -2.2488804
36.923153 -56.03017 -0.83084941
35.944202 -49.068779 -2.2673807
36.145199 -44.620586 -3.5647388
36.94384 -56.817284 -0.83914393
35.96043 -49.728123 -2.2876089
36.19939 -45.25238 -3.5974002
35.964474 -50.381901 -2.3074889
36.190845 -45.815197 -3.6244202
36.997437 -58.457092 -0.85659206
36.051014 -51.164139 -2.3331401
36.233963 -46.45295 -3.6572149
35.989693 -51.748585 -2.3496771
36.307587 -47.140949 -3.6937718
37.060242 -60.178059 -0.87507945
36.024811 -52.483181 -2.3729503
36.329578 -47.773022 -3.7257614
37.102562 -61.083046 -0.90108442
36.012901 -53.162033 -2.4080513
36.390701 -48.46777 -3.7644091
37.103874 -61.938576 -0.91032934
36.365417 -49.058151 -3.7928605
37.143944 -62.877434 -0.90423548
36.034332 -54.625519 -2.4394057
37.206219 -63.874619 -0.91527563
36.047688 -55.382107 -2.4632685
36.467117 -50.478615 -3.8657858
36.073219 -56.172222 -2.4885192
36.526833 -51.220451 -3.9053595
36.079067 -56.946819 -2.5129805
36.543499 -51.914734 -3.9411252
36.157021 -57.852016 -2.5430872
36.631256 -52.723774 -3.985405
36.133465 -58.611481 -2.5666776
36.646137 -53.442032 -4.0226254
36.162273 -59.472034 -2.5945966
36.700367 -54.231586 -4.0650287
36.17754 -60.327911 -2.6222022
36.941452 -55.316063 -4.1292491
36.191853 -61.200062 -2.650408
36.259094 -62.181427 -2.683223
36.26202 -63.072643 -2.7120278
36.263443 -64.905655 -2.7714996
36.282303 -65.885628 -2.8037858
36.311291 -66.906578 -2.8376975
36.340721 -67.952065 -2.8725281
36.339943 -68.964844 -2.9058604
36.392906 -70.105011 -2.9444373
36.381203 -71.14666 -2.978755
36.376732 -72.227837 -3.0146194
36.453541 -73.499489 -3.0583019
36.434589 -74.607872 -3.0950606
36.490189 -75.899292 -3.1392868
36.478851 -77.083328 -3.1789422
36.496159 -78.359848 -3.2222905
36.546143 -79.741974 -3.2698426
36.555199 -82.417336 -3.3608973
36.572655 -85.264763 -3.4584494
36.676041 -86.975021 -3.5186255
36.68465 -88.508438 -3.5714872
36.722008 -90.158623 -3.6289146
37.098511 16.168522 16.426596
37.008568 15.859827 16.343372
36.822945 15.513538 16.219057
36.678463 15.188345 16.114065
36.574081 14.882888 16.027786
36.492931 14.589518 15.952692
36.362335 14.279158 15.857003
36.256626 13.981487 15.773196
36.124401 13.676478 15.67887
35.955173 13.360751 15.569546
35.813053 13.058417 15.473016
37.206055 15.67562 15.235563
35.703941 12.770978 15.391726
37.021332 15.330997 15.121116
35.647827 12.504726 15.334171
36.872185 15.004858 15.022309
35.548832 12.225557 15.259031
36.694054 14.670581 14.91278
35.504623 11.967244 15.208249
36.614941 14.379006 14.84449
35.483524 11.71817 15.168126
36.479153 14.067945 14.754165
35.480286 11.476138 15.136356
36.362919 13.767421 14.672709
36.950176 11.953489 11.446772
35.453083 11.227517 15.095077
36.301994 13.490264 14.614451
36.733601 11.634933 11.357349
35.44175 10.985111 15.061269
36.178265 13.192214 14.531777
36.571365 11.337112 11.285469
35.554062 10.781257 15.080599
36.114918 12.918611 14.474221
36.377407 11.032786 11.204514
35.577637 10.55047 15.062856
35.960724 12.615108 14.381129
36.175266 10.729542 11.121766
35.63953 10.331342 15.061937
35.874649 12.338229 14.316161
37.074493 14.810982 13.937486
36.098515 10.466228 11.078216
35.676006 10.105035 15.050867
35.758205 12.053331 14.23991
37.013161 14.523766 13.880666
35.972172 10.190742 11.020046
35.77129 9.8953323 15.065166
35.654552 11.775262 14.169594
36.819298 14.187613 13.775057
35.869698 9.9243631 10.96979
35.860573 9.6835537 15.077459
35.569675 11.505659 14.115548
36.739403 13.89853 13.713
35.76725 9.6601505 10.920128
36.012093 9.4877777 15.116404
35.553444 11.259904 14.081426
36.649956 13.608222 13.648192
35.666279 9.3984575 10.871488
36.114677 9.2782059 15.135283
35.504688 11.005219 14.035106
36.534237 13.310752 13.574429
35.593193 9.1460085 10.831899
36.336437 9.0978756 15.204537
35.45829 10.752814 13.990418
36.419231 13.016287 13.501768
35.582764 8.910944 10.811883
36.597645 8.9250011 15.290633
35.440422 10.510376 13.957661
36.307362 12.725615 13.431094
35.526424 8.6655283 10.778405
35.463741 10.280977 13.941737
36.234684 12.451026 13.375693
35.431717 8.4124289 10.73381
37.045139 10.734229 10.319961
35.497532 10.055076 13.930503
36.088737 12.153811 13.29404
35.452023 8.187788 10.724539
36.734871 10.400428 10.215556
35.539845 9.8318996 13.923172
36.017693 11.88432 13.240757
35.45171 7.9589043 10.709469
36.408764 10.067207 10.107501
35.60704 9.6156807 13.926119
35.927395 11.610569 13.181124
35.485123 7.7380104 10.705018
36.286442 9.7941141 10.05667
35.662193 9.3961821 13.924877
35.799664 11.327163 13.108515
35.5257 7.5188127 10.703139
36.129345 9.5142651 9.9967642
35.729317 9.1797915 13.928831
35.720398 11.061426 13.054393
37.160561 13.550292 12.715919
35.633911 7.3135667 10.72202
35.940918 9.2291975 9.928771
36.227806 7.4357414 6.9897141
35.813366 8.9714499 13.936038
35.624657 10.80542 12.994257
36.977997 13.236404 12.639418
35.67979 7.0988507 10.711038
35.790184 8.9486475 9.8648434
35.953819 7.1361327 6.9205909
35.945057 8.7704 13.96608
35.538116 10.541491 12.938856
36.812874 12.923031 12.555637
35.822174 6.8989525 10.74087
35.705616 8.6950741 9.826643
35.792381 6.8760939 6.8812656
36.883083 7.0948367 -12.070185
36.090836 8.5716829 14.002021
35.481937 10.288383 12.895174
36.685066 12.625868 12.485388
35.961323 6.6971774 10.770069
35.613804 8.4415751 9.7869349
35.736343 6.6382246 6.8625312
36.371391 6.7652483 -11.888923
36.291824 8.3845129 14.059773
35.483173 10.053129 12.872963
36.488113 12.3082 12.39242
36.219891 6.5156407 10.835329
35.569416 8.2008724 9.7607241
35.613934 6.3896766 6.831367
36.11153 6.4879274 -11.790745
36.617733 8.2234631 14.166218
35.437176 9.8056087 12.834206
36.387005 12.025931 12.332786
36.530472 6.3403625 10.916397
35.521339 7.9605665 9.7339449
35.558388 6.1547494 6.8133407
35.892128 6.221416 -11.706424
35.402374 9.5625134 12.80011
36.249424 11.734238 12.26152
35.54034 7.7361112 9.7259598
35.585579 5.9347992 6.8114448
35.802299 5.9798026 -11.66494
35.524822 9.362092 12.823371
36.149586 11.457349 12.203741
35.503895 7.500309 9.7032089
35.508137 5.6981745 6.7898006
35.675625 5.7338629 -11.611984
36.997711 7.8234792 -13.21028
35.54147 9.1336279 12.808909
36.014362 11.171779 12.134721
35.48093 7.2683249 9.6845617
35.567776 5.4841013 6.7946429
35.594048 5.4969254 -11.574236
36.438553 7.4719582 -12.994012
35.521637 8.8965406 12.781848
35.912182 10.898981 12.077532
35.498089 7.0451689 9.6772652
36.701729 9.1923275 9.1140003
35.655186 5.273809 6.8050313
37.090405 7.3664045 6.1721416
36.490501 5.4035592 3.2119668
35.566547 5.2694483 -11.554561
36.130657 7.1780925 -12.868268
35.661671 8.6994238 12.812787
35.829853 10.634338 12.027672
35.616322 6.8417597 9.6978683
36.367847 8.8719158 9.0174017
35.669453 5.0524664 6.8017087
36.331009 6.9841452 6.0385275
36.157196 5.1276832 3.1797993
35.552761 5.0446687 -11.539809
35.932392 6.9097986 -12.782312
35.698746 8.4767332 12.807179
35.720692 10.363883 11.969454
35.648689 6.6214323 9.6954374
36.074574 8.5661955 8.9314833
35.746212 4.8397937 6.8105545
36.082638 6.7070851 5.990293
36.341526 4.9265447 3.1932912
35.526493 4.8187551 -11.521469
35.805931 6.6579194 -12.722555
35.776997 8.2637444 12.816819
35.658398 10.109013 11.927571
35.788063 6.4204063 9.7224445
35.857273 8.2825079 8.864933
35.887226 4.6348314 6.8318748
35.87471 6.4409614 5.9491
36.064392 4.663806 3.1663656
37.193531 4.7982631 -8.0502443
35.542332 4.5989881 -11.517238
35.714539 6.4144616 -12.675857
35.904861 8.0615416 12.844664
35.599506 9.8567324 11.887419
35.918171 6.2165112 9.7472448
35.746929 8.0263014 8.8253117
36.082096 4.4350843 6.8636627
35.772217 6.1962357 5.9256878
35.981113 4.4287419 3.1566086
35.5564 4.3791575 -11.512871
35.615234 6.1712904 -12.626934
36.419308 8.1604834 -14.085252
36.104229 7.8739209 12.898458
35.502434 9.5957088 11.835119
36.081726 6.0170312 9.7814264
35.606739 7.7656426 8.7787724
36.3283 4.2392387 6.9054174
35.673687 5.9539461 5.9032025
35.616264 4.1621494 3.1223011
36.192265 4.2182455 -7.8217344
35.624104 4.1657581 -11.5263
35.542896 5.9343553 -12.588141
36.138779 7.8650637 -13.957829
36.354935 7.6952257 12.970912
35.466057 9.352747 11.803639
36.388195 5.8388858 9.8546095
35.591553 7.5338578 8.7634649
36.721752 4.0569224 6.9753437
35.601692 5.7176232 5.8853736
35.601936 3.9391973 3.1188676
35.986828 3.9706464 -7.7719245
35.759144 3.9592905 -11.561915
35.504475 5.7042413 -12.561902
35.934948 7.5900712 -13.860855
36.668602 7.526844 13.066099
35.53215 9.1373663 11.806756
35.543129 7.2960386 8.7403545
35.568291 5.4886031 5.8741736
35.587261 3.7166862 3.1155252
35.667046 3.7144186 -4.0443487
35.855736 3.7336442 -7.7385197
35.924881 3.7546551 -11.607835
35.477318 5.47679 -12.540167
35.820648 7.3366251 -13.799143
35.427082 8.8580017 11.738877
35.497631 7.0599942 8.7186756
35.538609 5.264091 5.863904
35.575176 3.4948957 3.1125317
36.262341 3.5659125 -0.44813421
33.357979 3.2671764 -3.7742589
35.702534 3.4963868 -7.7006807
35.996269 3.5389738 -11.623667
35.551785 5.265152 -12.554832
35.702305 7.0844135 -13.736549
37.124603 9.2981567 -15.556857
35.436687 8.6297235 11.724294
35.536118 6.8412509 8.7176542
35.5924 5.0490742 5.867557
35.590611 3.2760532 3.1120644
35.870876 3.3053191 -0.44303742
35.675106 3.2728317 -7.6902885
36.357597 3.3493867 -11.733487
35.586014 5.0472798 -12.555748
35.560371 6.8297358 -13.665559
36.463299 8.8951187 -15.256581
35.479977 8.4099941 11.721321
35.532009 6.6146207 8.7065248
35.614243 4.8294401 5.8661623
35.641819 3.0603399 3.1148417
31.875553 2.7275136 -3.6024728
35.635124 3.0487905 -7.6774931
35.638557 4.8318486 -12.563588
35.563778 6.6043868 -13.651037
36.140327 8.581728 -15.099131
35.52206 8.190093 11.718401
35.604088 6.4022598 8.7143965
35.65559 4.6124268 5.8682013
36.657429 6.6095486 5.1244979
35.729164 2.8471057 3.1208897
36.288898 4.6910706 2.2685516
35.16629 2.8056455 -0.43387729
31.342943 2.4883125 -3.5404866
35.598843 2.8257682 -7.6657958
36.026367 4.641448 -8.7487326
35.718292 4.6196485 -12.581469
35.551292 6.3766594 -13.63097
35.882027 8.288146 -14.969687
35.631779 7.9854565 11.738212
35.658066 6.1863422 8.718153
35.71225 4.3971353 5.8729744
36.220562 6.301559 5.0579267
35.80632 2.6322591 3.1261592
36.068577 4.4377522 2.2530336
33.937344 2.4981349 -0.41851765
30.954021 2.2663984 -3.4949174
35.550934 2.6025572 -7.6518965
35.845097 4.3946743 -8.6980009
35.83918 4.4118729 -12.614277
35.518482 6.146069 -13.603674
35.80706 8.0397234 -14.91755
35.695557 7.7700362 11.743295
35.725391 5.9724541 8.7254906
36.020004 7.8612809 7.9194956
35.82864 4.1884575 5.8877788
36.032894 6.0413613 5.0264492
35.942753 2.4206522 3.1367149
35.909218 4.1946397 2.2414296
33.182602 2.2379587 -0.40903306
30.668783 2.056406 -3.4612219
35.548279 2.383168 -7.6480336
35.784779 4.1645708 -8.6769991
35.947826 4.201498 -12.643205
35.504509 5.9195108 -13.584156
35.654381 7.7759533 -14.833785
35.828575 7.5690374 11.771555
35.8298 5.7641435 8.7421865
35.85075 7.5941916 7.8718896
35.996128 3.9843068 5.9111729
35.856911 5.7858853 4.9968529
36.12207 2.2101705 3.1511211
35.773891 3.9564872 2.231425
30.435707 1.8532616 -3.4365871
35.617096 2.1683428 -7.6641803
35.648693 3.9271886 -8.6331539
37.189823 5.9883432 -10.068408
36.208843 4.0069537 -12.717363
35.556538 5.704174 -13.581511
35.566956 7.5285721 -14.778054
35.929691 7.3603935 11.789715
36.006252 5.5661016 8.776742
35.730431 7.3399229 7.835434
36.207767 3.7829921 5.9420037
35.735073 5.5414681 4.9750428
36.44334 2.0054584 3.178014
35.667912 3.7233813 2.2233477
32.331619 1.7823015 -0.40539211
36.23996 3.7897902 -1.3611101
30.168142 1.6512408 -3.4051678
35.656132 1.9512045 -7.6698599
35.583935 3.6992111 -8.6118126
36.510437 5.6493387 -9.8749075
36.595222 3.8225675 -12.844588
35.620228 5.4904218 -13.592714
35.522396 7.2917042 -14.740672
36.11644 7.1680303 11.836339
36.275787 5.3800769 8.8342295
35.635967 7.0929146 7.8050275
36.476257 3.584928 5.9823432
35.642761 5.3034034 4.9575667
37.053066 1.8110418 3.2301545
35.618214 3.4973998 2.2188702
32.015163 1.5678811 -0.39421979
35.488125 3.4911721 -1.333516
30.047068 1.4597548 -3.3874495
36.253891 3.5594862 -5.0173306
35.737514 1.7357898 -7.6805696
35.580578 3.4783211 -8.6104984
36.154949 5.3673902 -9.7633829
35.635181 5.2690854 -13.594733
35.53524 7.0673952 -14.727591
36.414982 6.9953203 11.919888
36.613102 5.2007127 8.9084368
35.567524 6.8526802 7.7806821
35.562134 5.0685692 4.9419336
35.573044 3.2727163 2.2147634
31.811609 1.3623072 -0.39160302
33.716133 3.1080925 -1.2661905
29.899431 1.2687411 -3.3698642
35.894291 1.5227033 -7.712111
35.584801 3.2584307 -8.6065197
35.946125 5.1111684 -9.6983404
35.76926 5.0648351 -13.633771
35.453976 6.8253579 -14.676276
36.969528 6.866909 12.08739
35.564392 6.62602 7.770956
35.605694 4.8520584 4.9437566
35.56057 3.0516465 2.2127795
31.576017 1.1581633 -0.38860804
32.944504 2.8332102 -1.2365361
29.792761 1.0811249 -3.3570309
33.311447 2.8583326 -4.6049118
36.072067 1.3085661 -7.7484355
35.581928 3.0381298 -8.6011543
35.834194 4.8711243 -9.6598949
35.905174 4.8595433 -13.673954
35.478794 6.6046357 -14.669497
35.534321 6.3950677 7.7556643
35.575199 4.6257453 4.9354887
35.647232 2.8388574 2.2170465
31.431686 0.95978862 -0.38675201
32.396469 2.5859306 -1.2153479
29.692066 0.89508098 -3.3450029
35.570621 2.8174274 -8.5940809
35.684975 4.6280169 -9.6118336
36.165394 4.6689754 -13.761886
35.554077 6.3931885 -14.684129
35.539413 6.1711001 7.7483659
35.569538 4.4032412 4.9308619
35.621727 2.6169722 2.2144198
31.303352 0.76364946 -0.38510802
29.580956 0.71009135 -3.3319321
31.914316 2.3443143 -4.4074655
35.639374 2.6029246 -8.6066713
35.621567 4.3977199 -9.5873051
36.48732 6.3182187 -10.917479
35.570641 6.1710968 -14.675055
35.570793 5.9519448 7.7470994
35.630489 4.1889758 4.9356551
35.676712 2.4010172 2.2168806
36.479042 4.2659483 1.3672321
31.15419 0.56876338 -0.38322282
31.589016 2.1317151 -1.1839859
29.581949 0.52852249 -3.3316157
31.385813 2.1119571 -4.3326068
35.678848 2.385813 -8.6125069
35.598064 4.1732268 -9.5739079
36.251282 6.0484815 -10.835545
35.582352 5.948463 -14.664553
35.64122 5.7391424 7.754622
35.695328 3.974705 4.9411659
36.293697 5.8210659 4.1409512
35.774204 2.1871645 2.2220628
36.163868 4.0043163 1.3544729
31.118141 0.37712207 -0.38274369
31.302349 1.9195039 -1.1727778
29.550751 0.34660372 -3.3278
31.105347 1.9014368 -4.2921991
35.794724 2.1730335 -8.6370964
35.769028 3.9709346 -9.6131544
36.012138 5.7816906 -10.753258
35.700806 5.7433133 -14.69857
35.732193 5.5290747 7.7668877
35.764858 3.7604249 4.9475036
35.989887 5.5460463 4.1023273
35.910618 1.9744164 2.2297413
35.947132 3.757194 1.3454666
31.012018 0.18553239 -0.38141724
31.045027 1.712588 -1.1627214
29.515032 0.16506861 -3.323601
30.792944 1.6927596 -4.2475777
35.981495 1.9628583 -8.6790934
35.739574 3.7458148 -9.5988798
35.849533 5.5301642 -10.69437
35.90197 5.5499024 -14.767094
35.794895 5.3135681 7.7650414
35.916103 3.5536532 4.9653158
35.902092 5.33251 4.083086
36.09581 1.7611322 2.2481122
35.812302 3.5210984 1.339586
30.991056 -0.0047539687 -0.38133362
30.874821 1.5132385 -1.1484076
29.516144 -0.016035676 -3.3182149
30.551752 1.495561 -4.2068429
36.22113 1.7532072 -8.7337408
35.749592 3.5198934 -9.5987949
35.730396 5.2875404 -10.626015
35.994884 5.3383374 -14.781825
36.023083 5.1217384 7.8075786
36.062012 3.3447831 4.9825563
35.775276 5.089519 4.0650358
36.324707 1.548948 2.2617335
35.70541 3.289516 1.3348076
30.970592 -0.19478658 -0.38108936
30.750031 1.3180437 -1.1434436
32.543751 2.9986188 -2.0361423
29.504709 -0.19707102 -3.317003
30.365284 1.2997212 -4.1799898
36.048943 3.3281753 -5.9097791
36.512466 1.5428101 -8.8015413
35.620075 3.2865908 -9.5584249
35.624901 5.0487499 -10.585229
36.322311 5.1593289 -14.903007
36.108917 4.9080963 7.8195071
36.303993 3.1426766 5.0132308
35.685383 4.853528 4.0513611
36.745682 1.3410767 2.2873898
35.66193 3.0649559 1.332454
30.988506 -0.38505962 -0.38133168
30.565727 1.1222974 -1.1363128
31.917351 2.743506 -1.9958602
29.54505 -0.37864444 -3.3217368
30.242813 1.108618 -4.1621165
35.755669 3.0799577 -5.8584919
35.609146 3.0653493 -9.5502653
35.573231 4.8189592 -10.560891
36.414837 4.7222981 7.8793325
36.754299 2.9545641 5.0728149
35.611942 4.6211681 4.0397282
35.603683 2.839988 1.3296014
30.977629 -0.57504708 -0.38123408
30.458048 0.9312433 -1.1320759
31.465736 2.5102887 -1.9666195
29.570246 -0.56045449 -3.3248937
30.143442 0.91980839 -4.1475859
35.563335 2.8436706 -5.8240099
35.782417 2.8591938 -9.5918503
35.566105 4.5959396 -10.550205
35.510635 4.3866363 4.0251069
35.596619 2.6197214 1.3287123
31.100008 -0.76823592 -0.38279098
30.34317 0.7414062 -1.1276158
31.103544 2.2894218 -1.9430678
29.583738 -0.74232227 -3.3268602
30.026026 0.73184878 -4.130734
35.87191 2.644938 -9.6113081
35.494591 4.3654423 -10.520847
35.522953 4.1670299 4.0235295
35.584179 2.3993783 1.3276736
31.137924 -0.96038043 -0.38332298
30.2285 0.55303931 -1.1232072
30.825243 2.0788541 -1.9248489
29.667831 -0.92661691 -3.3368938
29.935295 0.54587275 -4.1177139
34.149635 2.3092639 -5.5874343
36.004135 2.4326651 -9.6425543
35.548931 4.1508646 -10.529206
35.589691 3.9536345 4.0282645
35.652 2.1842866 1.3296789
31.321131 -1.1584368 -0.38565856
30.162279 0.36671087 -1.1206419
30.571829 1.8733999 -1.9082708
36.073711 3.999819 -3.1736133
29.727917 -1.1111169 -3.3443553
29.85939 0.36123097 -4.1068907
33.230999 2.0423908 -5.4349775
36.302265 2.2291338 -9.7185526
35.575626 3.9328718 -10.529767
35.612595 3.7351139 4.0281868
35.706425 1.9677867 1.3312333
36.631756 3.8171134 0.45370638
31.434158 -1.3558048 -0.38714546
30.11215 0.18131971 -1.118717
30.361876 1.6736045 -1.8944893
33.689823 3.5263753 -2.9619296
29.856947 -1.2994398 -3.359705
29.829592 0.17782286 -4.1025648
32.573372 1.8014233 -5.3255138
36.370621 3.8134813 -6.8945646
35.610283 3.7156777 -10.533078
35.89312 3.5420165 4.0573826
35.737091 1.7496021 1.3319513
36.226536 3.5503328 0.44840923
31.635382 -1.5590112 -0.38973421
30.088329 -0.0034455929 -1.1178118
30.249325 1.4812897 -1.8868637
32.949055 3.2445786 -2.8949978
29.970888 -1.4886979 -3.373491
29.825119 -0.0052105486 -4.1018767
32.105255 1.5780015 -5.2472978
36.075829 3.5589216 -6.8344145
35.691334 3.5028906 -10.550495
35.983044 3.3280835 4.0651631
35.88348 1.5361266 1.3370309
36.052628 3.3100793 0.44599679
31.904959 -1.7685997 -0.39318156
30.101234 -0.18814839 -1.1183131
30.104481 1.2890882 -1.8773
32.158714 2.9676328 -2.8239033
30.140966 -1.6826037 -3.393733
29.842045 -0.18832448 -4.1042862
31.744062 1.3650552 -5.1867976
35.923508 3.3214574 -6.801569
35.827492 3.2944319 -10.58457
36.158699 3.1206892 4.0827675
36.033432 1.3210975 1.3422908
35.898182 3.0738969 0.44384453
32.172878 -1.9815382 -0.39662567
30.073364 -0.37251863 -1.1173415
29.953358 1.0985347 -1.8674207
31.537338 2.7152407 -2.7678242
30.329374 -1.8798665 -3.4161813
29.837833 -0.37139726 -4.1039433
31.448402 1.159068 -5.1372294
35.784771 3.0873034 -6.7715869
35.948086 3.0832038 -10.614408
36.330299 2.9110348 4.100049
35.776356 1.0919031 1.3324398
35.782333 2.8429224 0.44218817
32.594913 -2.2083685 -0.40198797
30.07239 -0.55707306 -1.1174113
29.863947 0.91180521 -1.8614625
31.18395 2.4921544 -2.7354164
30.590015 -2.0845146 -3.4469147
29.816557 -0.55412918 -4.1014075
31.192541 0.95802391 -5.0943775
35.711048 2.8603055 -6.7541876
36.188923 2.8802891 -10.6801
